VERSION 0.7
FIELDS x y z
SIZE 4 4 4
TYPE F F F
COUNT 1 1 1
WIDTH 468
HEIGHT 1
VIEWPOINT 0.0 0.0 0.0 1.0 0.0 0.0 0.0
POINTS 468
DATA ascii
696.760709463 631.075748347 381.319078054
697.165383339 631.467279503 381.328993605
697.170075143 631.872897293 381.339306524
697.176678848 632.27844775 381.349617544
697.199120407 632.683440426 381.35991283
695.946499928 633.133338444 381.371474845
697.622920764 634.291647063 381.40076212
698.394964328 634.670240134 381.410312702
698.442817256 635.074337868 381.420582742
698.481565625 635.478756249 381.430861827
696.300663052 630.698576574 380.834012494
697.154904687 631.07427478 380.843481415
697.170148312 631.479520954 380.853783851
697.15756565 631.885747119 380.864113932
697.180486432 632.290722918 380.874408741
697.017811999 632.702235039 380.884887933
697.248162704 634.317254617 380.925929409
698.354148654 634.684086851 380.93514823
698.442305887 635.086765142 380.94537823
698.474337942 635.491420058 380.955663987
696.908028987 630.689595526 380.358204076
697.142874609 631.087107721 380.368288346
697.16531329 631.492100499 380.378583634
697.185357584 631.897177602 380.388881301
697.183328853 632.303032077 380.399200897
696.688690982 632.72623534 380.410009883
696.245331472 634.364981754 380.451720666
698.26349353 634.699688822 380.460033273
698.43075954 635.099581047 380.47018468
698.469507238 635.503999451 380.480463766
696.733380299 630.708155595 379.883172563
697.144758873 631.099450625 379.893081453
697.1787154 631.504037765 379.903365299
697.157973288 631.910551291 379.913703486
697.023140684 632.321082874 379.924155018
695.98722154 632.763349069 379.935501748
696.601330585 634.364853384 379.976161973
698.364198396 634.708551446 379.984728206
698.443670627 635.111535606 379.994966833
698.471860459 635.516325839 380.005256408
695.914810615 630.74939338 379.408780764
696.987932458 631.117383027 379.418032235
697.143175396 631.517698683 379.428195587
696.640828149 631.941173456 379.439012231
695.861155352 632.374415126 379.45010439
695.960948527 633.994032701 379.49127557
697.836164285 634.333774074 379.499730189
698.351160568 634.721419878 379.509536138
698.436440834 635.12419949 379.519768995
698.496775234 635.52785765 379.530026635
695.804945155 630.765671903 378.933684891
696.695306726 631.140098031 378.943117928
696.94321116 631.537150319 378.953189224
696.349608866 631.963838928 378.964096527
697.364668522 633.957005526 379.014676002
698.33205044 634.328719139 379.024032522
698.401507148 634.732056028 379.0342811
698.449837188 635.136136959 379.044550666
698.50345777 635.540031568 379.054814976
696.36087258 630.758502425 378.457927576
697.160487239 631.136124493 378.467450767
697.159418969 631.541945142 378.477769408
697.175624685 631.947157433 378.488070889
696.079350532 632.391549221 378.49947758
698.202678785 633.939901608 378.538638448
698.388629984 634.339135775 378.548771292
698.387554135 634.744956691 378.559089941
698.420540895 635.149577985 378.569374751
698.495745875 635.552712431 378.579617617
696.241884716 630.775102223 377.982840766
697.136462299 631.149379871 377.992269614
697.164662301 631.554169745 378.002559179
697.180387931 631.959398944 378.012861136
696.464581763 632.390391349 378.023889845
696.338838998 633.612168858 378.054967507
698.355122069 633.9469421 378.06328198
698.359322849 634.352577183 378.073595387
698.382239314 634.757553134 378.083890201
698.435377411 635.161464734 378.094154991
698.509147986 635.564649697 378.104399282
696.405405443 630.781752587 377.507473293
697.143147233 631.161553704 377.517057953
697.168467006 631.566445015 377.527350379
697.157798932 631.972603751 377.537678557
696.406905777 632.404831855 377.548742124
696.142145404 633.631505309 377.579957895
698.340204566 633.959876731 377.58809178
698.37991896 634.36426109 377.598369906
698.408596938 634.769034131 377.608658995
698.423828858 635.174280717 377.618961443
698.506233115 635.577161617 377.629197158
696.119619759 630.398443671 377.022234611
697.124988354 630.768819464 377.031553392
697.156069929 631.173507854 377.041840094
697.15163693 631.579447003 377.052162078
696.846008808 631.995993691 377.06278329
695.860980228 632.436467614 377.074079462
697.227930374 633.605675222 377.103674185
698.367517853 633.971324071 377.112859625
698.40099391 634.375928133 377.123143948
698.379767586 634.782458712 377.133482616
698.447788545 635.185846165 377.14373262
698.508125535 635.589504234 377.153990257
696.392577517 630.401239865 376.546758416
697.128795554 630.781094645 376.556344589
697.127242496 631.186932367 376.566663713
697.176072866 631.590995678 376.576932782
695.902819621 632.041620345 376.588515295
698.102411832 633.587286856 376.627600398
698.399152586 633.982619218 376.637623177
698.368809233 634.389470882 376.647970902
698.433958885 634.792959458 376.658223758
698.444872812 635.198358116 376.668530496
698.490334328 635.602540071 376.678802912
696.009196773 630.427151094 376.071934271
697.06116182 630.795885845 376.081206761
697.14448472 631.198734392 376.091441563
696.823496432 631.615822036 376.102078034
696.224715814 633.260042096 376.143943223
698.292241767 633.593010658 376.152206788
698.337699541 633.997192745 376.162479208
698.417715266 634.400157765 376.172717295
698.394571763 634.806755864 376.183057868
698.435725073 635.211089546 376.193334564
698.509974199 635.614257655 376.20357838
695.913582237 630.848710753 375.607141821
696.088533846 631.248332306 375.617285593
695.832308249 631.663139127 375.627857725
696.617076378 633.258633142 375.668348406
698.296043114 633.605286046 375.676997991
698.34247123 634.009433959 375.687269447
698.369220899 634.414274912 375.697560452
698.407494651 634.818710007 375.707840009
698.441443118 635.223297431 375.718123863
698.52816796 635.626026169 375.728355285
696.193429249 633.28596248 375.193564264
698.261027416 633.618928498 375.201827758
698.339555401 634.021945914 375.212067323
698.37542546 634.426465663 375.222349268
698.431930492 634.830258686 375.232610712
698.430373884 635.236096533 375.242929839
698.557877839 635.637389105 375.253120749
696.489910688 633.287930212 374.7180647
698.320918835 633.629228497 374.726563237
698.338078199 634.034407202 374.73686377
698.397461156 634.43809887 374.747122356
698.401655796 634.843734169 374.757435769
698.426022114 635.248659059 374.767729142
698.541052657 635.650390921 374.777932444
696.313466835 632.900770478 374.23271739
698.200186523 633.240106704 374.24116058
698.313206365 633.64190938 374.251365879
698.407142477 634.044384149 374.261590137
698.383987654 634.450982646 374.271930721
698.429456749 634.855164335 374.282203129
698.431740256 635.26086694 374.292518441
698.538619888 635.662885863 374.30272984
696.896327773 632.892652451 373.756933318
698.301285728 633.24895544 373.765855121
698.373146513 633.652207662 373.77610131
698.371581365 634.05804581 373.786420445
698.419454729 634.462142825 373.796690465
698.426064672 634.867693061 373.807001479
698.432667994 635.273243531 373.817312499
698.550098295 635.674890879 373.827513416
697.196702998 632.894483051 373.281429885
698.364099869 633.259152505 373.290587697
698.350072727 633.665429542 373.300919213
698.404179727 634.06930702 373.31118304
698.424705929 634.474367151 373.321480228
698.405394865 634.880830278 373.331816993
698.457104985 635.284792169 373.342083201
698.521274412 635.688315267 373.352337031
697.01376511 632.913335051 372.806406607
698.328558234 633.27281348 372.815417986
698.353874361 633.67770492 372.825710416
698.417583756 634.081244218 372.835964703
698.413619905 634.487166845 372.846286221
698.438469378 634.892074719 372.856579114
698.440751445 635.297777375 372.866894428
698.533238663 635.700303172 372.877120125
696.002567578 632.555573808 372.321888596
698.09559515 632.887644249 372.330126826
698.312215344 633.285798311 372.340229202
698.386473105 633.688966116 372.350473009
698.368114634 634.095395694 372.360808828
698.439019372 634.498681586 372.371055967
698.436987859 634.904536159 372.381375566
698.438800681 635.310255341 372.391691345
698.551437125 635.712071519 372.401897025
696.590147317 632.547289593 371.846099835
698.307010732 632.892607845 371.854711771
698.388941716 633.295505413 371.864947956
698.356198505 633.702441596 371.875298066
698.415104065 634.106150077 371.885557126
698.436102966 634.511193561 371.895853844
698.434551731 634.917031219 371.906172966
698.472350963 635.321483026 371.916452994
698.516367229 635.725715881 371.926726845
697.176999554 632.539031 371.370311798
698.323285395 632.904443945 371.379490583
698.353874985 633.309149663 371.389777773
698.371519809 633.714311271 371.400077824
698.424193075 634.118239242 371.410343076
698.411593718 634.524465995 371.420673173
698.463315639 634.928427471 371.430939369
698.444956975 635.334857056 371.441275188
698.554722978 635.736774326 371.45148372
696.984892234 632.558205931 370.895297629
698.305499272 632.917479604 370.904303232
698.35144711 633.321644432 370.914575165
698.393081849 633.72596116 370.924851383
698.383841368 634.132069619 370.935178143
698.44803037 634.535592027 370.945431954
698.438323139 634.941716925 370.955759178
698.455004144 635.346912477 370.966060186
698.54365547 635.749573367 370.976289695
695.844768473 632.204985232 370.410907702
697.773746774 632.542833187 370.419308909
698.322255077 632.929298759 370.429081566
698.377317644 633.333142584 370.439344443
698.367608016 633.739267566 370.44967167
698.42124107 634.143161735 370.459935967
698.439840692 634.548289717 370.47023507
698.417657171 634.954854006 370.480574689
698.46505323 635.358967831 370.490845183
698.516258317 635.762947509 370.501111892
696.591235035 632.191105315 369.934961093
698.270042416 632.537763831 369.943610836
698.330858822 632.941405015 369.953867998
698.35473162 633.346347286 369.964161861
698.389163338 633.750917691 369.974445235
698.420721065 634.155589312 369.984731464
698.414370792 634.561595984 369.995055353
698.481914832 634.965000234 370.00530583
698.441974071 635.372189901 370.015663091
698.538305817 635.7745803 370.025884969
696.96297874 632.190422449 369.459386758
698.092097973 632.556439971 369.468582598
698.289081439 632.955285602 369.478704482
698.383000665 633.357760966 369.488928757
698.383372942 633.763530882 369.499245967
698.394293777 634.168929297 369.509552698
698.453681147 634.57262081 369.519811279
698.446848389 634.978644473 369.530135647
698.452019033 635.3842454 369.540448091
698.545942096 635.786720628 369.550672362
697.120815866 632.197272979 368.984024932
698.251741758 632.563226874 368.993218977
698.333196206 632.966141225 369.003455635
698.352744295 633.371235804 369.013753795
698.385732686 633.77585704 369.024038602
698.437920685 634.179802101 369.034304336
698.440689075 634.58548763 369.044619166
698.443931986 634.991156448 369.054933524
698.470701995 635.395996684 369.06522451
698.531982558 635.799621522 369.07548121
696.863998669 632.218726873 368.509075051
698.263702746 632.575214894 368.518002073
698.305332399 632.979531801 368.528278296
698.326804575 633.384558617 368.538574545
698.380426596 633.788453175 368.548838853
698.400946372 634.193513533 368.559136048
698.410911448 634.598945608 368.569443728
698.464532797 635.002840189 368.579708038
698.437076675 635.40959017 368.590052895
698.544913025 635.811575399 368.600263344
696.084849392 632.258576343 368.034644088
697.970209319 632.597960458 368.043088629
698.28226437 632.992753479 368.053096193
698.325811873 633.397002842 368.06337051
698.369354388 633.801252382 368.073644833
698.379801469 634.206667481 368.083952034
698.445904193 634.610122492 368.094203944
698.417485309 635.016906379 368.104549757
698.446161655 635.421679478 368.114838849
698.525690578 635.824661642 368.12507742
696.398950148 632.665706582 367.5694446
698.21371593 633.007576893 367.577959273
698.330098872 633.409261126 367.588161231
698.364999835 633.813815005 367.598444139
698.347643563 634.220209288 367.608778962
698.405081324 634.623969462 367.61903948
698.392532424 635.030194438 367.629369527
698.408750708 635.435406287 367.639670995
698.51604817 635.837410494 367.649881979
696.135721158 633.498952341 367.115136249
696.166862566 633.903638625 367.125422891
696.325100384 634.303848806 367.135583268
696.811004184 634.692519194 367.14541812
696.593562978 635.1059601 367.15595172
696.857755443 635.502438754 367.166006835
697.685267362 635.879078331 367.175502311
696.061696915 623.775175963 366.392382841
696.764406522 624.156210848 366.402002304
696.624300261 624.56692816 366.412459075
695.714957399 625.004736571 366.423680055
695.534531163 623.400368009 365.907383961
696.920326354 623.757345876 365.916324802
696.939405679 624.162456963 365.926623428
696.971925498 624.567094702 365.936908701
696.650544223 624.984196186 365.947545562
696.860856674 623.771849552 365.441178863
696.944178232 624.174698147 365.451413666
696.967087884 624.579674338 365.461708486
696.904632882 624.987656915 365.472088113
695.608309994 625.439094052 365.483693546
695.832249501 623.820484471 364.966995728
697.118695764 624.180961224 364.976035268
697.239426327 624.582492342 364.986232907
697.026435625 624.99577651 364.996762086
696.387418387 625.42406455 365.007714508
695.51870468 623.032370154 364.471467043
695.873999608 623.425640346 364.48143165
696.630424349 623.804783484 364.490997748
698.059407639 624.160240345 364.499895683
698.089525396 624.564962679 364.510183343
697.628450096 624.986983931 364.520958985
696.621477041 625.428230698 364.532276959
696.545324913 623.00862374 363.995242111
696.896312593 623.402045626 364.005210997
697.715135676 623.778991208 364.014715105
698.069459892 624.172295587 364.024680676
698.092365898 624.577271906 364.0349755
698.126797522 624.981842314 364.045258874
696.641054656 625.439950474 364.057052488
695.788254569 622.641912604 363.510471633
696.879115038 623.009277529 363.519705481
696.934616446 623.413105898 363.529967923
697.760161119 623.789814758 363.539465353
698.063653566 624.184909339 363.549481424
698.082732796 624.59002043 363.55978005
698.136360189 624.993914799 363.570044354
696.398125408 625.46091526 363.58208881
696.527429088 622.628289499 363.034532268
697.490236558 623.000164216 363.043893333
697.87441054 623.392417341 363.05382925
698.021517918 623.793019516 363.064000684
698.045870035 624.197944906 363.074294071
698.098534185 624.601873198 363.084559332
698.125765572 625.006697186 363.094849859
696.795883272 625.459316223 363.106488631
696.850080897 622.223552533 362.548689124
697.970478362 622.58987722 362.557893629
697.981402939 622.995275503 362.568200356
698.003843443 623.400268216 362.578495642
698.022439707 623.805396317 362.588794748
698.069829051 624.209510378 362.599065249
698.097057944 624.614334453 362.609355778
698.112295044 625.019580857 362.619658221
696.686895841 625.475563824 362.631391886
695.721710662 621.869917896 362.06428752
697.956635366 622.196990982 362.07238478
697.968999242 622.602338576 362.082690078
697.987602606 623.007466426 362.092989176
698.008120942 623.412526835 362.103286372
698.015690096 623.81804329 362.113596433
698.074115569 624.221768678 362.12385597
698.09078132 624.626964768 362.134156993
698.118984297 625.031754538 362.144446555
696.375992314 625.498922539 362.156495737
696.22540381 621.864588013 361.588582098
697.951324863 622.209587272 361.597185036
697.959369786 622.615086971 361.607494624
697.980373101 623.0201303 361.617791338
697.995132802 623.425393517 361.628094255
698.02668909 623.830065189 361.638380485
698.058240964 624.234737017 361.64866672
698.08547331 624.63956097 361.658957246
698.013017248 625.047895766 361.669346809
695.755722382 625.53317657 361.681906933
695.821818221 621.89121082 361.113778026
697.953208456 622.221930199 361.121978144
697.96989301 622.627125627 361.132279149
697.979377712 623.03257462 361.142587307
698.010452954 623.437263233 361.152874015
698.018978923 623.842745991 361.163183125
698.057240298 624.247181523 361.173462694
698.089280222 624.651836162 361.183748444
697.502568555 625.078282095 361.194648902
695.8208843 621.903652975 360.638573933
697.945979143 622.234594067 360.646780306
697.964580684 622.639721981 360.657079406
697.978383763 623.045018889 360.667383274
698.011381843 623.449639784 360.677668072
698.022301335 623.855038246 360.687974804
698.055761082 624.259642882 360.698259143
698.087803788 624.664297423 360.70854489
697.454523124 625.092383431 360.719491613
695.475572758 621.928223477 360.163711968
697.812639914 622.251699293 360.171707753
697.965986014 622.652081752 360.18187299
697.977387606 623.057463236 360.192179243
698.011347778 623.462050247 360.202463085
698.020344239 623.867516435 360.212771728
698.053813292 624.272120743 360.223056058
698.036955034 624.678497487 360.233390386
697.088948826 625.11766755 360.244649778
697.120414059 622.28848748 359.697190435
697.959232757 622.664728853 359.706674678
697.974954741 623.069958181 359.71697664
698.006514483 623.474629731 359.727262866
698.011671789 623.880231127 359.737575323
698.010159498 624.286067414 359.747894406
697.192571897 624.720644374 359.759024231
696.342037481 625.156381659 359.770186788
696.736103382 622.31443146 359.222367214
697.957756035 622.677190125 359.231471125
697.973477827 623.082419459 359.241773086
697.997361083 623.487361361 359.25206694
698.024111808 623.892202277 359.262357944
697.731946041 624.308274845 359.272965781
696.098772211 624.771575253 359.284905863
696.135261283 622.348001278 358.74775911
697.949565494 622.689887845 358.756274242
697.971045154 623.094914397 358.766570483
697.993967375 623.499890145 358.776865291
697.83896521 623.911132064 358.78733686
696.496542938 624.364192736 358.798988091
696.851093422 622.740983277 358.282160515
697.66850096 623.117978712 358.29166603
697.182456618 623.540879327 358.302466478
695.928166968 623.99083613 358.314030152
696.169330912 631.28643726 358.49950701
696.300189421 631.68761169 358.509694587
695.955273183 632.105542033 358.520354829
696.217566825 630.48558169 358.003618908
697.444664436 630.848148594 358.01271741
698.246570599 631.225689959 358.022238324
698.304028416 631.629449427 358.032498822
698.12556591 632.041517575 358.042993699
696.224202784 632.514263117 358.055200217
696.202768166 630.092729109 357.518111009
698.116828106 630.431102462 357.526527038
698.23608475 630.832685489 357.536726141
698.269079665 631.237306495 357.547010942
698.281446515 631.642653984 357.557316236
698.300526895 632.047765035 357.567614861
696.95821745 632.500821734 357.579265979
696.79666552 630.0842224 357.042315972
698.212658356 630.440136761 357.051226813
698.24613518 630.844740795 357.061511135
698.267130532 631.249784404 357.071807858
698.292929336 631.654658844 357.082099808
698.303847101 632.060057367 357.092406542
696.505299233 632.529181945 357.104510917
697.102239935 630.085869894 356.566807375
698.2260573 630.452074138 356.576008481
698.244173671 630.85721914 356.586308064
698.260380154 631.262431404 356.596609543
698.282817587 631.667424226 356.606904833
697.290705907 632.108147603 356.618208042
697.800331855 630.073693644 356.090908824
698.227461095 630.464433963 356.100802066
698.248457503 630.869477535 356.111098787
698.268979101 631.274537829 356.12139598
698.294297626 631.679429184 356.131688408
696.681826228 632.14200049 356.143607922
697.411259782 630.099805311 355.616090333
698.233183074 630.47664171 355.625591361
698.251300212 630.881786684 355.635890943
698.265106265 631.287083487 355.646194807
697.677921936 631.713546067 355.657095735
695.877810443 632.182725713 355.669201664
695.80444088 630.168803784 355.142481632
697.122257267 630.528175739 355.151490007
697.346148661 630.926073723 355.161585159
696.653670702 631.356244551 355.172590692