VERSION 0.7
FIELDS x y z
SIZE 4 4 4
TYPE F F F
COUNT 1 1 1
WIDTH 1338
HEIGHT 1
VIEWPOINT 0.0 0.0 0.0 1.0 0.0 0.0 0.0
POINTS 1338
DATA ascii
654.378 613.812 372.536
654.819 614.512 372.546
654.36 613.192 372.061
654.778 613.431 372.071
655.231 614.385 372.082
654.371 613.156 371.586
654.781 613.222 371.596
655.209 613.68 371.606
654.36 612.676 371.111
654.771 612.784 371.121
655.201 613.263 371.131
655.651 614.15 371.142
656.067 614.348 371.152
654.344 612.09 370.635
654.749 612.081 370.646
655.182 612.613 370.656
655.617 613.206 370.667
656.022 613.181 370.677
656.432 613.268 370.687
656.873 613.982 370.698
654.355 612.06 370.16
654.763 612.106 370.171
655.171 612.134 370.181
655.596 612.518 370.191
656.033 613.148 370.202
656.439 613.165 370.212
656.844 613.135 370.223
657.296 614.066 370.233
654.369 612.085 369.685
654.776 612.103 369.695
655.181 612.081 369.706
655.587 612.09 369.716
656.016 612.565 369.727
656.452 613.172 369.737
656.856 613.124 369.747
657.282 613.528 369.758
654.38 612.064 369.21
654.788 612.102 369.22
655.194 612.094 369.231
655.599 612.089 369.241
656.017 612.326 369.251
656.464 613.154 369.262
656.869 613.14 369.272
657.273 613.095 369.283
657.729 614.105 369.293
654.393 612.068 368.735
654.8 612.087 368.745
655.207 612.108 368.755
655.611 612.072 368.766
656.017 612.067 368.776
656.464 612.895 368.787
656.882 613.142 368.797
657.287 613.114 368.807
657.746 614.206 368.818
654.405 612.058 368.259
654.814 612.113 368.27
655.218 612.08 368.28
655.625 612.092 368.291
656.028 612.041 368.301
656.443 612.22 368.311
656.893 613.102 368.322
657.341 613.961 368.332
654.421 612.123 367.784
654.825 612.085 367.795
655.233 612.118 367.805
655.637 612.078 367.815
656.041 612.053 367.826
656.446 612.029 367.836
656.897 612.936 367.847
654.432 612.107 367.309
654.839 612.114 367.319
655.244 612.097 367.33
655.65 612.095 367.34
656.053 612.037 367.351
656.46 612.046 367.361
656.887 612.486 367.371
654.444 612.086 366.834
654.851 612.098 366.844
655.257 612.114 366.855
655.661 612.071 366.865
656.067 612.065 366.875
656.47 612.009 366.886
656.882 612.12 366.896
657.382 614.039 366.906
657.77 613.664 366.917
658.157 613.272 366.927
658.58 613.626 366.938
654.457 612.086 366.359
654.862 612.08 366.369
655.27 612.111 366.379
655.675 612.094 366.39
656.078 612.041 366.4
656.484 612.04 366.411
656.889 612.002 366.421
657.307 612.259 366.431
657.754 613.09 366.442
658.159 613.06 366.452
658.563 613.031 366.463
659.011 613.878 366.473
654.468 612.057 365.883
654.877 612.124 365.894
655.282 612.112 365.904
655.686 612.069 365.915
656.092 612.053 365.925
656.496 612.025 365.935
656.902 612.018 365.946
657.308 612.022 365.956
657.767 613.094 365.967
658.171 613.048 365.977
658.576 613.039 365.987
659.015 613.706 365.998
654.482 612.099 365.408
654.889 612.105 365.419
655.296 612.123 365.429
655.699 612.07 365.439
656.104 612.041 365.45
656.509 612.03 365.46
656.914 611.999 365.471
657.319 611.995 365.481
657.766 612.811 365.491
658.184 613.07 365.502
658.588 613.027 365.512
659.036 613.873 365.522
654.494 612.075 364.933
654.902 612.112 364.943
655.306 612.08 364.954
655.712 612.073 364.964
656.116 612.035 364.975
656.522 612.033 364.985
656.927 612.01 364.995
657.332 611.995 365.006
657.745 612.141 365.016
658.196 613.043 365.027
658.601 613.038 365.037
659.043 613.759 365.047
654.508 612.104 364.458
654.912 612.071 364.468
655.321 612.121 364.479
655.723 612.048 364.489
656.13 612.062 364.499
656.534 612.02 364.51
656.939 612.003 364.52
657.344 611.979 364.531
657.75 611.976 364.541
658.178 612.44 364.551
658.613 613.023 364.562
659.074 614.14 364.572
654.519 612.077 363.983
654.927 612.117 363.993
655.331 612.074 364.003
655.738 612.093 364.014
656.141 612.027 364.024
656.547 612.033 364.035
656.951 611.99 364.045
657.357 611.991 364.056
657.762 611.974 364.066
658.167 611.957 364.076
658.616 612.83 364.087
659.089 614.192 364.097
654.531 612.072 363.507
654.938 612.083 363.518
655.345 612.101 363.528
655.749 612.073 363.539
656.155 612.062 363.549
656.557 611.994 363.559
656.964 612.014 363.57
657.368 611.957 363.58
657.775 611.976 363.591
658.179 611.947 363.601
658.623 612.713 363.611
659.06 613.34 363.622
654.544 612.08 363.032
654.951 612.096 363.043
655.356 612.079 363.053
655.763 612.092 363.063
656.165 612.014 363.074
656.573 612.044 363.084
656.975 611.98 363.095
657.382 611.992 363.105
657.786 611.958 363.116
658.193 611.968 363.126
658.644 612.894 363.136
659.067 613.221 363.147
654.556 612.073 362.557
654.963 612.095 362.567
655.37 612.099 362.578
655.774 612.059 362.588
656.179 612.05 362.599
656.582 611.992 362.609
656.989 612.006 362.619
657.392 611.948 362.63
657.8 611.982 362.64
658.204 611.949 362.651
658.655 612.851 362.661
659.111 613.867 362.671
654.57 612.093 362.082
654.975 612.076 362.092
655.382 612.094 362.103
655.787 612.08 362.113
656.191 612.027 362.123
656.597 612.03 362.134
657.0 611.979 362.144
657.407 611.995 362.155
657.811 611.954 362.165
658.218 611.961 362.176
658.639 612.278 362.186
659.105 613.5 362.196
654.581 612.057 361.607
654.989 612.094 361.617
655.393 612.071 361.627
655.799 612.065 361.638
656.203 612.029 361.648
656.608 612.001 361.659
657.014 611.997 361.669
657.418 611.952 361.68
657.825 611.985 361.69
658.23 611.954 361.7
658.637 611.976 361.711
659.087 612.872 361.721
659.534 613.696 361.731
654.595 612.085 361.131
654.999 612.062 361.142
655.407 612.102 361.152
655.811 612.059 361.163
656.216 612.034 361.173
656.621 612.012 361.183
657.025 611.972 361.194
657.431 611.973 361.204
657.837 611.971 361.215
658.243 611.964 361.225
658.647 611.927 361.236
659.081 612.49 361.246
659.512 613.005 361.256
659.98 614.257 361.266
654.605 612.033 360.656
655.014 612.101 360.667
655.418 612.068 360.677
655.824 612.065 360.687
656.228 612.014 360.698
656.634 612.01 360.708
657.038 611.977 360.719
657.444 611.976 360.729
657.85 611.98 360.74
658.255 611.953 360.75
658.66 611.933 360.76
659.095 612.528 360.771
659.527 613.062 360.781
654.62 612.098 360.181
655.024 612.05 360.191
655.432 612.1 360.202
655.834 612.016 360.212
656.242 612.047 360.223
656.646 612.012 360.233
657.051 611.984 360.243
657.456 611.973 360.254
657.863 611.977 360.264
658.267 611.954 360.275
658.679 612.062 360.285
659.128 612.936 360.295
659.558 613.421 360.306
654.631 612.066 359.706
655.039 612.094 359.716
655.443 612.049 359.727
655.85 612.07 359.737
656.252 612.003 359.747
656.659 612.022 359.758
657.063 611.984 359.768
657.469 611.982 359.779
657.875 611.977 359.789
658.28 611.946 359.8
658.731 612.871 359.81
659.144 613.008 359.82
659.597 613.961 359.83
654.645 612.087 359.231
655.05 612.068 359.241
655.457 612.088 359.251
655.86 612.022 359.262
656.268 612.057 359.272
656.67 611.986 359.283
657.077 612.004 359.293
657.481 611.963 359.303
657.887 611.973 359.314
658.294 611.992 359.324
658.745 612.894 359.335
659.158 613.033 359.345
659.612 614.008 359.355
654.658 612.088 358.755
655.063 612.079 358.766
655.467 612.039 358.776
655.874 612.057 358.787
656.278 612.022 358.797
656.684 612.017 358.807
657.088 611.97 358.818
657.495 611.989 358.828
657.899 611.961 358.839
658.305 611.946 358.849
658.723 612.193 358.859
659.17 613.025 358.87
659.624 614.01 358.88
654.669 612.075 358.28
655.075 612.072 358.291
655.481 612.065 358.301
655.885 612.03 358.311
656.292 612.04 358.322
656.695 611.974 358.332
657.102 612.0 358.343
657.507 611.974 358.353
657.912 611.967 358.363
658.317 611.947 358.374
658.73 612.074 358.384
659.19 613.188 358.395
659.647 614.221 358.405
654.683 612.09 357.805
655.087 612.061 357.815
655.493 612.045 357.826
655.899 612.059 357.836
656.302 611.994 357.847
656.709 612.021 357.857
657.112 611.957 357.867
657.519 611.974 357.878
657.925 611.963 357.888
658.331 611.963 357.899
658.802 613.285 357.909
659.255 614.241 357.919
654.693 612.054 357.33
655.1 612.069 357.34
655.506 612.061 357.351
655.909 612.009 357.361
656.317 612.039 357.371
656.719 611.971 357.382
657.126 611.99 357.392
657.53 611.945 357.403
657.938 611.983 357.413
658.371 612.524 357.423
654.706 612.063 356.855
655.112 612.049 356.865
655.517 612.033 356.875
655.924 612.06 356.886
656.327 611.999 356.896
656.734 612.018 356.907
657.138 611.965 356.917
657.545 611.98 356.927
657.95 611.959 356.938
658.373 612.306 356.948
658.865 614.057 356.958
654.719 612.057 356.379
655.124 612.049 356.39
655.531 612.066 356.4
655.935 612.024 356.411
656.342 612.044 356.421
656.745 611.987 356.431
657.152 611.993 356.442
657.556 611.964 356.452
657.963 611.983 356.463
658.368 611.964 356.473
658.817 612.836 356.483
659.29 614.185 356.494
654.731 612.049 355.904
655.137 612.055 355.915
655.543 612.055 355.925
655.949 612.056 355.935
656.354 612.024 355.946
656.76 612.02 355.956
657.163 611.962 355.967
657.57 611.996 355.977
657.975 611.964 355.987
658.383 612.009 355.998
658.834 612.911 356.008
659.294 614.024 356.018
654.743 612.037 355.429
655.151 612.08 355.439
655.555 612.048 355.45
655.961 612.039 355.46
656.367 612.037 355.471
656.771 611.99 355.481
657.178 612.012 355.491
657.582 611.979 355.502
657.988 611.979 355.512
658.432 612.743 355.523
658.868 613.349 355.533
659.32 614.289 355.543
654.757 612.075 354.954
655.162 612.051 354.964
655.569 612.07 354.975
655.974 612.055 354.985
656.378 612.016 354.995
656.785 612.023 355.006
657.189 611.992 355.016
657.595 611.984 355.027
658.033 612.635 355.037
658.46 613.051 355.047
658.92 614.149 355.058
654.769 612.056 354.479
655.176 612.079 354.489
655.581 612.059 354.499
655.986 612.037 354.51
656.392 612.043 354.52
656.797 612.011 354.531
657.202 612.005 354.541
657.622 612.289 354.551
658.067 613.063 354.562
658.493 613.48 354.572
654.782 612.065 354.003
655.188 612.07 354.014
655.593 612.054 354.024
655.999 612.053 354.035
656.404 612.022 354.045
656.81 612.025 354.055
657.215 611.999 354.066
657.635 612.286 354.076
658.079 613.068 354.087
658.54 614.169 354.097
654.794 612.048 353.528
655.201 612.079 353.539
655.607 612.068 353.549
656.012 612.049 353.559
656.417 612.038 353.57
656.822 612.012 353.58
657.227 611.998 353.591
657.678 612.898 353.601
658.131 613.862 353.611
654.808 612.089 353.053
655.213 612.071 353.063
655.619 612.07 353.074
656.024 612.05 353.084
656.429 612.03 353.095
656.835 612.016 353.105
657.292 613.065 353.115
654.82 612.069 352.578
655.226 612.08 352.588
655.632 612.066 352.599
656.041 612.133 352.609
656.46 612.396 352.619
656.909 613.281 352.63
654.833 612.081 352.103
655.241 612.118 352.113
655.659 612.372 352.123
656.121 613.505 352.134
656.567 614.315 352.144
654.874 612.665 351.627
655.355 614.187 351.637
655.775 614.463 351.648
679.028 617.528 372.65
679.4 616.843 372.661
679.8 616.73 372.671
680.24 617.415 372.681
681.051 617.382 372.702
681.453 617.308 372.713
681.866 617.449 372.723
678.211 617.175 372.154
678.592 616.664 372.165
678.98 616.309 372.175
679.383 616.24 372.185
679.788 616.226 372.196
680.2 616.333 372.206
680.61 616.419 372.217
681.005 616.19 372.227
681.409 616.163 372.237
681.815 616.167 372.248
682.257 616.888 372.258
677.807 616.969 371.668
678.179 616.283 371.679
678.585 616.278 371.689
678.986 616.172 371.7
679.382 615.962 371.71
679.789 615.977 371.721
680.181 615.71 371.731
680.566 615.266 371.742
680.975 615.342 371.752
681.416 616.046 371.762
681.827 616.15 371.773
682.232 616.133 371.783
682.664 616.653 371.793
677.434 617.38 371.183
677.788 616.332 371.193
678.193 616.298 371.204
678.577 615.852 371.214
678.952 615.233 371.225
679.353 615.125 371.235
679.759 615.123 371.246
680.164 615.093 371.256
680.57 615.103 371.266
680.974 615.07 371.277
681.399 615.443 371.287
681.84 616.157 371.297
682.229 615.82 371.308
682.626 615.622 371.318
683.099 616.994 371.329
677.415 616.744 370.708
677.799 616.291 370.718
678.193 616.053 370.729
678.555 615.157 370.739
678.96 615.134 370.75
679.366 615.14 370.76
679.771 615.119 370.77
680.178 615.126 370.781
680.581 615.069 370.791
680.988 615.088 370.802
681.395 615.107 370.812
681.813 615.356 370.822
682.202 615.018 370.833
682.608 615.012 370.843
683.017 615.077 370.854
683.494 616.51 370.864
676.244 617.431 370.201
676.655 617.536 370.212
677.432 616.827 370.232
677.809 616.234 370.243
678.177 615.475 370.253
678.567 615.149 370.264
678.974 615.161 370.274
679.378 615.125 370.285
679.784 615.13 370.295
680.188 615.08 370.306
680.595 615.105 370.316
681.0 615.071 370.326
681.405 615.067 370.337
681.81 615.031 370.347
682.216 615.037 370.358
682.62 614.989 370.368
683.026 614.992 370.378
683.437 615.101 370.389
683.893 616.109 370.399
684.352 617.184 370.409
675.828 616.978 369.716
676.203 616.344 369.726
676.605 616.273 369.736
677.05 617.063 369.747
677.417 616.266 369.757
677.769 615.173 369.768
678.175 615.169 369.778
678.581 615.169 369.789
678.986 615.149 369.799
679.392 615.149 369.81
679.796 615.113 369.82
680.203 615.122 369.83
680.607 615.088 369.841
681.012 615.076 369.851
681.417 615.047 369.862
681.823 615.05 369.872
682.227 615.002 369.882
682.633 615.007 369.893
683.038 614.983 369.903
683.443 614.967 369.914
683.848 614.939 369.924
684.268 615.226 369.935
684.769 617.164 369.945
675.467 617.64 369.23
675.81 616.369 369.24
676.176 615.545 369.251
676.565 615.206 369.261
676.974 615.259 369.272
677.377 615.203 369.282
677.782 615.192 369.293
678.188 615.173 369.303
678.594 615.178 369.314
678.998 615.139 369.324
679.404 615.148 369.334
679.809 615.121 369.345
680.215 615.125 369.355
680.619 615.074 369.366
681.025 615.083 369.376
681.43 615.051 369.386
681.835 615.028 369.397
682.241 615.03 369.407
682.645 614.995 369.418
683.05 614.981 369.428
683.455 614.955 369.439
683.861 614.959 369.449
684.266 614.932 369.459
684.753 616.575 369.47
675.456 617.171 368.755
675.798 615.864 368.765
676.172 615.221 368.776
676.578 615.224 368.786
676.984 615.206 368.797
677.39 615.22 368.807
677.794 615.178 368.817
678.201 615.196 368.828
678.605 615.159 368.838
679.011 615.16 368.849
679.416 615.133 368.859
679.823 615.148 368.87
680.226 615.087 368.88
680.633 615.109 368.89
681.037 615.062 368.901
681.443 615.06 368.911
681.848 615.036 368.922
682.253 615.028 368.932
682.657 614.975 368.942
683.062 614.969 368.953
683.468 614.968 368.963
683.873 614.94 368.974
684.278 614.93 368.984
684.76 616.474 368.994
674.679 617.616 368.259
675.093 617.774 368.269
675.481 617.412 368.279
675.81 615.846 368.29
676.186 615.241 368.301
676.591 615.22 368.311
676.997 615.231 368.321
677.402 615.192 368.332
677.808 615.21 368.342
678.212 615.16 368.353
678.619 615.184 368.363
679.023 615.145 368.374
679.43 615.164 368.384
679.834 615.111 368.394
680.24 615.124 368.405
680.644 615.077 368.415
681.051 615.086 368.426
681.453 615.023 368.436
681.861 615.06 368.446
682.264 615.001 368.457
682.67 614.997 368.467
683.075 614.974 368.478
683.48 614.95 368.488
683.885 614.935 368.499
684.291 614.922 368.509
684.773 616.471 368.519
674.629 616.355 367.784
675.036 616.364 367.794
675.484 617.228 367.804
675.893 617.289 367.815
676.214 615.564 367.825
676.604 615.236 367.836
677.009 615.214 367.846
677.415 615.212 367.857
677.82 615.192 367.867
678.225 615.176 367.878
678.631 615.16 367.888
679.038 615.189 367.898
679.441 615.124 367.909
679.848 615.147 367.919
680.253 615.117 367.93
680.657 615.093 367.94
681.063 615.076 367.95
681.468 615.072 367.961
681.871 615.007 367.971
682.277 615.011 367.982
682.682 614.972 367.992
683.088 614.979 368.002
683.492 614.947 368.013
683.898 614.948 368.023
684.303 614.91 368.034
684.775 616.25 368.044
674.642 616.355 367.308
675.048 616.361 367.319
675.458 616.436 367.329
675.901 617.184 367.34
676.24 615.834 367.35
676.617 615.234 367.361
677.023 615.232 367.371
677.428 615.225 367.381
677.833 615.203 367.392
678.239 615.204 367.402
678.643 615.162 367.413
679.051 615.193 367.423
679.452 615.103 367.434
679.861 615.161 367.444
680.264 615.086 367.454
680.672 615.125 367.465
681.074 615.06 367.475
681.481 615.07 367.486
681.885 615.023 367.496
682.29 615.013 367.506
682.695 614.998 367.517
683.099 614.96 367.527
683.506 614.969 367.538
683.909 614.915 367.548
684.315 614.912 367.559
684.74 615.286 367.569
685.236 617.116 367.579
674.654 616.345 366.833
675.046 616.067 366.844
675.413 615.279 366.854
675.818 615.24 366.865
676.223 615.239 366.875
676.629 615.235 366.885
677.035 615.231 366.896
677.44 615.213 366.906
677.847 615.219 366.917
678.251 615.181 366.927
678.658 615.206 366.938
679.061 615.156 366.948
679.469 615.177 366.958
679.873 615.145 366.969
680.279 615.138 366.979
680.684 615.117 366.99
681.089 615.102 367.0
681.493 615.056 367.01
681.898 615.046 367.021
682.302 614.994 367.031
682.708 615.0 367.042
683.112 614.958 367.052
683.517 614.938 367.062
683.923 614.933 367.073
684.327 614.906 367.083
684.734 614.924 367.094
685.183 615.797 367.104
685.659 617.208 367.114
674.667 616.351 366.358
675.027 615.432 366.369
675.424 615.248 366.379
675.831 615.255 366.389
676.236 615.237 366.4
676.643 615.26 366.41
677.046 615.205 366.421
677.455 615.255 366.431
677.857 615.182 366.441
678.266 615.231 366.452
678.669 615.177 366.462
679.075 615.182 366.473
679.483 615.223 366.483
679.89 615.244 366.494
680.292 615.158 366.504
680.697 615.141 366.514
681.102 615.107 366.525
681.506 615.08 366.535
681.911 615.049 366.546
682.315 615.009 366.556
682.72 614.996 366.566
683.124 614.948 366.577
683.529 614.921 366.587
683.933 614.894 366.598
684.34 614.908 366.608
684.744 614.87 366.619
685.151 614.877 366.629
685.565 615.047 366.639
686.053 616.705 366.65
674.68 616.37 365.883
675.044 615.509 365.893
675.438 615.267 365.904
675.843 615.245 365.914
676.25 615.26 365.925
676.654 615.234 365.935
677.061 615.257 365.945
677.465 615.215 365.956
677.872 615.233 365.966
678.277 615.202 365.977
678.683 615.203 365.987
679.09 615.218 365.997
679.522 615.745 366.008
679.93 615.792 366.018
680.326 615.595 366.029
680.73 615.54 366.039
681.145 615.728 366.049
681.527 615.25 366.06
681.923 615.049 366.07
682.328 615.027 366.081
682.732 614.977 366.091
683.137 614.961 366.102
683.541 614.911 366.112
683.946 614.902 366.123
684.351 614.871 366.133
684.758 614.885 366.143
685.162 614.851 366.154
685.568 614.858 366.164
685.983 615.026 366.175
686.487 617.028 366.185
674.691 616.331 365.408
675.053 615.44 365.418
675.45 615.268 365.429
675.857 615.27 365.439
676.261 615.244 365.449
676.667 615.246 365.46
677.073 615.245 365.47
677.479 615.244 365.481
677.886 615.255 365.491
678.288 615.179 365.501
678.697 615.233 365.512
679.109 615.36 365.522
679.559 616.243 365.533
680.009 617.146 365.543
680.37 616.229 365.553
680.777 616.242 365.564
681.182 616.218 365.574
681.566 615.778 365.585
681.936 615.055 365.595
682.34 615.01 365.606
682.745 614.988 365.616
683.149 614.953 365.626
683.554 614.931 365.637
683.958 614.88 365.647
684.363 614.873 365.658
684.768 614.851 365.668
685.175 614.867 365.679
685.58 614.833 365.689
685.986 614.833 365.699
686.44 615.823 365.71
674.678 615.816 364.932
675.057 615.265 364.943
675.463 615.275 364.953
675.869 615.265 364.964
676.273 615.235 364.974
676.681 615.256 364.985
677.085 615.226 364.995
677.493 615.274 365.005
677.895 615.193 365.016
678.304 615.241 365.026
678.717 615.393 365.037
679.206 617.073 365.047
680.026 617.229 365.068
680.384 616.266 365.078
680.789 616.239 365.089
681.194 616.211 365.099
681.597 616.145 365.109
681.961 615.296 365.12
682.353 615.02 365.13
682.757 614.98 365.141
683.163 614.967 365.151
683.566 614.917 365.162
683.971 614.9 365.172
684.375 614.855 365.183
684.782 614.864 365.193
685.187 614.849 365.203
685.593 614.842 365.214
685.997 614.818 365.224
686.43 615.354 365.235
686.925 617.155 365.245
674.698 615.967 364.457
675.07 615.286 364.468
675.476 615.278 364.478
675.881 615.261 364.489
676.288 615.269 364.499
676.691 615.22 364.509
677.099 615.261 364.52
677.504 615.225 364.53
677.911 615.243 364.541
678.315 615.208 364.551
678.779 616.386 364.561
680.051 617.488 364.592
680.402 616.373 364.603
680.801 616.23 364.613
681.206 616.207 364.624
681.61 616.17 364.634
682.015 616.152 364.645
682.413 615.988 364.655
682.816 615.921 364.666
683.194 615.341 364.676
683.579 614.925 364.686
683.983 614.881 364.697
684.388 614.866 364.707
684.793 614.841 364.718
685.199 614.837 364.728
685.604 614.814 364.739
686.01 614.83 364.749
686.416 614.818 364.759
686.821 614.793 364.77
687.255 615.36 364.78
687.747 617.113 364.79
674.724 616.23 363.982
675.092 615.461 363.993
675.489 615.277 364.003
675.894 615.27 364.013
676.299 615.239 364.024
676.706 615.261 364.034
677.11 615.214 364.045
677.518 615.269 364.055
677.921 615.207 364.065
678.328 615.225 364.076
678.82 616.974 364.086
680.451 617.099 364.128
680.814 616.237 364.138
681.218 616.203 364.149
681.623 616.179 364.159
682.027 616.142 364.169
682.432 616.117 364.18
682.836 616.072 364.19
683.242 616.06 364.201
683.643 615.971 364.211
684.015 615.285 364.222
684.399 614.838 364.232
684.804 614.812 364.243
685.21 614.799 364.253
685.616 614.811 364.263
686.022 614.804 364.274
686.428 614.807 364.284
686.833 614.784 364.295
687.239 614.776 364.305
687.711 616.132 364.315
674.742 616.351 363.507
675.145 616.282 363.517
675.501 615.275 363.528
675.907 615.27 363.538
676.313 615.268 363.549
676.717 615.23 363.559
677.125 615.267 363.569
677.528 615.203 363.58
677.936 615.249 363.59
678.347 615.35 363.601
678.848 617.288 363.611
680.881 617.339 363.663
681.278 617.154 363.673
681.686 617.19 363.684
682.04 616.147 363.694
682.444 616.107 363.705
682.85 616.091 363.715
683.253 616.045 363.726
683.656 615.974 363.736
684.016 615.052 363.746
684.413 614.853 363.757
684.817 614.809 363.767
685.222 614.806 363.778
685.628 614.8 363.788
686.034 614.805 363.799
686.44 614.793 363.809
686.846 614.791 363.819
687.251 614.775 363.83
687.67 615.048 363.84
688.167 616.896 363.85
674.793 617.138 363.031
675.162 616.374 363.042
675.524 615.487 363.053
675.919 615.258 363.063
676.324 615.247 363.073
676.73 615.239 363.084
677.135 615.224 363.094
677.542 615.236 363.105
677.946 615.197 363.115
678.369 615.539 363.125
678.839 616.851 363.136
682.079 616.675 363.219
682.457 616.105 363.229
682.862 616.08 363.24
683.266 616.052 363.25
683.64 615.39 363.261
684.02 614.875 363.271
684.424 614.832 363.282
684.829 614.814 363.292
685.236 614.825 363.303
685.64 614.793 363.313
686.047 614.811 363.323
686.453 614.809 363.334
686.858 614.792 363.344
687.264 614.782 363.355
687.669 614.761 363.365
688.136 616.011 363.375
674.823 617.492 362.556
675.175 616.391 362.567
675.535 615.455 362.577
675.932 615.263 362.588
676.336 615.235 362.598
676.742 615.239 362.609
677.148 615.238 362.619
677.553 615.214 362.629
677.96 615.232 362.64
678.365 615.212 362.65
678.87 617.222 362.66
682.475 616.213 362.754
682.874 616.067 362.765
683.278 616.037 362.775
683.641 615.162 362.786
684.032 614.856 362.796
684.437 614.833 362.807
684.842 614.808 362.817
685.248 614.81 362.827
685.654 614.81 362.838
686.061 614.827 362.848
686.465 614.792 362.859
686.871 614.787 362.869
687.276 614.773 362.879
687.681 614.756 362.89
688.154 616.11 362.9
674.85 617.787 362.081
675.205 616.738 362.092
675.544 615.375 362.102
675.944 615.266 362.113
676.35 615.262 362.123
676.754 615.229 362.133
677.161 615.231 362.144
677.566 615.215 362.154
677.972 615.214 362.165
678.378 615.208 362.175
678.829 616.121 362.185
679.293 617.307 362.196
682.487 616.218 362.279
682.886 616.071 362.289
683.289 616.001 362.3
683.649 615.074 362.31
684.045 614.872 362.321
684.449 614.821 362.331
684.854 614.812 362.342
685.261 614.83 362.352
685.666 614.805 362.363
686.073 614.816 362.373
686.478 614.8 362.383
686.883 614.791 362.394
687.292 614.848 362.404
687.696 614.809 362.415
688.134 615.449 362.425
688.567 615.991 362.435
675.579 615.834 361.627
675.957 615.27 361.637
676.362 615.239 361.648
676.767 615.221 361.658
677.172 615.204 361.669
677.579 615.227 361.679
677.983 615.191 361.689
678.39 615.207 361.7
678.795 615.189 361.71
679.233 615.829 361.721
679.724 617.554 361.731
682.133 617.002 361.793
682.49 616.023 361.804
682.879 615.675 361.814
683.259 615.15 361.825
683.653 614.889 361.835
684.057 614.864 361.846
684.462 614.831 361.856
684.868 614.84 361.867
685.273 614.816 361.877
685.68 614.838 361.887
686.085 614.82 361.898
686.491 614.811 361.908
686.909 615.064 361.919
687.33 615.351 361.929
687.708 614.782 361.939
688.112 614.742 361.95
688.516 614.717 361.96
688.951 615.287 361.971
689.442 617.03 361.981
675.617 616.363 361.152
675.971 615.308 361.162
676.375 615.258 361.173
676.779 615.227 361.183
677.186 615.238 361.193
677.589 615.185 361.204
677.997 615.212 361.214
678.402 615.201 361.225
678.808 615.186 361.235
679.213 615.176 361.245
679.662 616.038 361.256
680.104 616.781 361.266
680.545 617.492 361.276
681.705 616.306 361.308
682.054 615.155 361.318
682.452 614.986 361.329
682.857 614.961 361.339
683.261 614.922 361.35
683.665 614.895 361.36
684.071 614.877 361.371
684.475 614.837 361.381
684.88 614.831 361.391
685.286 614.833 361.402
685.693 614.84 361.412
686.097 614.798 361.423
686.503 614.804 361.433
686.909 614.791 361.443
687.317 614.832 361.454
687.719 614.759 361.464
688.124 614.737 361.475
688.529 614.715 361.485
688.934 614.695 361.495
689.406 616.046 361.506
675.662 617.006 360.676
676.012 615.886 360.687
676.387 615.25 360.697
676.793 615.25 360.708
677.197 615.208 360.718
677.604 615.217 360.729
678.007 615.167 360.739
678.414 615.192 360.749
678.82 615.194 360.76
679.225 615.156 360.77
679.631 615.154 360.781
680.047 615.359 360.791
680.478 615.878 360.801
680.923 616.666 360.812
681.363 617.354 360.822
681.656 615.068 360.833
682.06 615.015 360.843
682.465 615.005 360.854
682.87 614.975 360.864
683.274 614.927 360.874
683.679 614.92 360.885
684.083 614.873 360.895
684.488 614.851 360.906
684.894 614.844 360.916
685.3 614.854 360.927
685.705 614.827 360.937
686.111 614.826 360.947
686.516 614.802 360.958
686.921 614.794 360.968
687.326 614.772 360.979
687.731 614.75 360.989
688.137 614.74 360.999
688.542 614.727 361.01
688.947 614.704 361.02
689.41 615.855 361.031
676.063 616.659 360.212
676.404 615.334 360.222
676.804 615.222 360.233
677.211 615.237 360.243
677.615 615.191 360.253
678.021 615.2 360.264
678.425 615.156 360.274
678.832 615.166 360.285
679.238 615.167 360.295
679.641 615.117 360.306
680.048 615.124 360.316
680.473 615.522 360.326
680.886 615.661 360.337
681.292 615.647 360.347
681.668 615.04 360.358
682.073 615.026 360.368
682.478 614.998 360.378
682.882 614.97 360.389
683.288 614.965 360.399
683.692 614.928 360.41
684.097 614.91 360.42
684.502 614.876 360.431
684.907 614.869 360.441
685.312 614.844 360.451
685.718 614.847 360.462
686.123 614.825 360.472
686.529 614.817 360.483
686.934 614.795 360.493
687.339 614.781 360.503
687.744 614.76 360.514
688.149 614.744 360.524
688.554 614.718 360.535
688.959 614.704 360.545
689.408 615.564 360.555
676.123 617.613 359.736
676.45 616.014 359.747
676.817 615.228 359.757
677.222 615.2 359.768
677.628 615.208 359.778
678.032 615.167 359.789
678.438 615.171 359.799
678.843 615.143 359.809
679.25 615.151 359.82
679.655 615.14 359.83
680.059 615.103 359.841
680.465 615.107 359.851
680.87 615.085 359.862
681.277 615.099 359.872
681.68 615.045 359.882
682.085 615.02 359.893
682.49 614.994 359.903
682.895 614.968 359.914
683.3 614.963 359.924
683.705 614.93 359.934
684.109 614.901 359.945
684.516 614.902 359.955
684.919 614.852 359.966
685.326 614.867 359.976
685.73 614.826 359.987
686.136 614.835 359.997
686.541 614.806 360.007
686.947 614.8 360.018
687.351 614.774 360.028
687.757 614.76 360.039
688.162 614.746 360.049
688.567 614.726 360.059
688.972 614.706 360.07
689.454 616.249 360.08
676.532 617.421 359.271
676.867 615.991 359.282
677.235 615.211 359.293
677.64 615.192 359.303
678.046 615.198 359.313
678.45 615.141 359.324
678.857 615.171 359.334
679.26 615.118 359.345
679.667 615.136 359.355
680.071 615.097 359.366
680.477 615.085 359.376
680.882 615.068 359.386
681.288 615.063 359.397
681.693 615.041 359.407
682.098 615.021 359.418
682.502 614.984 359.428
682.908 614.986 359.438
683.311 614.932 359.449
683.718 614.935 359.459
684.123 614.914 359.47
684.527 614.884 359.48
684.933 614.881 359.491
685.337 614.847 359.501
685.744 614.855 359.511
686.148 614.827 359.522
686.554 614.82 359.532
686.959 614.801 359.543
687.364 614.783 359.553
687.77 614.773 359.563
688.194 615.137 359.574
688.617 615.479 359.584
689.057 616.166 359.594
676.944 617.289 358.807
677.273 615.728 358.817
677.653 615.194 358.828
678.058 615.172 358.838
678.464 615.179 358.849
678.867 615.13 358.859
679.275 615.156 358.869
679.678 615.097 358.88
680.084 615.103 358.89
680.489 615.086 358.901
680.894 615.065 358.911
681.301 615.068 358.922
681.704 615.011 358.932
682.111 615.028 358.942
682.515 614.986 358.953
682.92 614.974 358.963
683.325 614.955 358.974
683.729 614.921 358.984
684.135 614.916 358.994
684.54 614.889 359.005
684.945 614.877 359.015
685.351 614.863 359.026
685.756 614.851 359.036
686.161 614.836 359.047
686.567 614.827 359.057
686.972 614.803 359.067
687.377 614.789 359.078
687.785 614.816 359.088
688.239 615.805 359.099
688.686 616.631 359.109
677.359 617.213 358.342
677.694 615.775 358.353
678.07 615.175 358.363
678.475 615.156 358.373
678.882 615.166 358.384
679.286 615.12 358.394
679.692 615.131 358.405
680.096 615.088 358.415
680.502 615.077 358.426
680.907 615.072 358.436
681.312 615.043 358.446
681.718 615.047 358.457
682.121 614.992 358.467
682.528 615.004 358.478
682.932 614.963 358.488
683.338 614.954 358.498
683.743 614.945 358.509
684.147 614.909 358.519
684.553 614.895 358.53
684.959 614.892 358.54
685.363 614.863 358.551
685.769 614.864 358.561
686.174 614.84 358.571
686.579 614.825 358.582
686.985 614.811 358.592
687.39 614.795 358.603
687.81 615.078 358.613
688.254 615.857 358.623
688.72 617.057 358.634
677.796 617.601 357.877
678.122 615.978 357.888
678.501 615.417 357.898
678.893 615.134 357.909
679.299 615.147 357.919
679.704 615.112 357.93
680.11 615.106 357.94
680.514 615.081 357.95
680.919 615.061 357.961
681.325 615.044 357.971
681.73 615.028 357.982
682.135 615.018 357.992
682.54 614.986 358.002
682.945 614.966 358.013
683.351 614.962 358.023
683.755 614.93 358.034
684.161 614.929 358.044
684.566 614.905 358.055
684.971 614.89 358.065
685.376 614.874 358.075
685.782 614.863 358.086
686.187 614.843 358.096
686.592 614.833 358.107
687.0 614.856 358.117
687.415 615.057 358.127
687.861 615.85 358.138
688.306 616.65 358.148
678.21 617.51 357.412
678.565 616.477 357.423
678.947 615.975 357.433
679.315 615.212 357.444
679.716 615.114 357.454
680.122 615.103 357.465
680.527 615.086 357.475
680.932 615.066 357.486
681.337 615.051 357.496
681.742 615.027 357.506
682.148 615.017 357.517
682.553 614.993 357.527
682.958 614.982 357.538
683.363 614.951 357.548
683.769 614.958 357.558
684.173 614.92 357.569
684.579 614.916 357.579
684.984 614.893 357.59
685.39 614.886 357.6
685.794 614.864 357.611
686.2 614.851 357.621
686.631 615.359 357.631
687.099 616.616 357.642
687.519 616.903 357.652
679.03 617.416 356.958
679.405 616.782 356.968
679.773 616.012 356.979
680.139 615.194 356.99
680.54 615.084 357.0
680.949 615.156 357.01
681.359 615.234 357.021
681.755 615.029 357.031
682.161 615.027 357.042
682.566 615.007 357.052
682.971 614.983 357.062
683.376 614.967 357.073
683.781 614.944 357.083
684.186 614.928 357.094
684.591 614.913 357.104
685.001 614.996 357.115
685.431 615.472 357.125
685.846 615.648 357.135
686.284 616.308 357.146
686.732 617.164 357.156
680.254 617.282 356.514
680.631 616.688 356.525
681.039 616.731 356.535
681.442 616.655 356.545
681.804 615.767 356.556
682.173 615.02 356.566
682.578 615.005 356.577
682.984 614.99 356.587
683.411 615.416 356.598
683.836 615.805 356.608
684.286 616.698 356.618
684.715 617.165 356.629
682.272 616.781 356.091
682.653 616.274 356.101
683.062 616.333 356.112
683.49 616.772 356.122
683.924 617.346 356.133