VERSION 0.7
FIELDS x y z
SIZE 4 4 4
TYPE F F F
COUNT 1 1 1
WIDTH 1621
HEIGHT 1
VIEWPOINT 0.0 0.0 0.0 1.0 0.0 0.0 0.0
POINTS 1621
DATA ascii
697.004 740.818 379.624
696.962 742.097 379.594
696.906 742.41 379.587
696.835 741.705 379.603
697.675 741.207 379.542
697.616 741.282 379.54
697.548 740.809 379.551
697.021 741.932 379.524
696.972 742.736 379.505
696.912 742.748 379.505
696.851 742.735 379.505
696.775 741.707 379.528
696.642 740.904 379.546
697.795 741.123 379.47
697.749 742.088 379.448
697.698 742.731 379.433
697.637 742.714 379.433
697.57 742.249 379.444
697.128 740.971 379.472
697.09 742.48 379.437
697.033 742.726 379.431
696.973 742.735 379.431
696.912 742.733 379.431
696.852 742.745 379.43
696.784 742.262 379.441
696.727 742.523 379.435
696.671 742.775 379.429
696.605 742.457 379.436
696.527 741.23 379.464
697.863 741.61 379.385
697.82 742.739 379.359
697.759 742.722 379.359
697.698 742.717 379.359
697.638 742.72 379.358
697.577 742.706 379.359
697.491 740.964 379.398
697.137 741.612 379.382
697.093 742.711 379.357
697.033 742.725 379.357
696.973 742.718 379.357
696.912 742.742 379.356
696.851 742.663 379.357
696.783 742.19 379.368
696.731 742.743 379.355
696.671 742.778 379.354
696.61 742.762 379.355
696.549 742.691 379.356
696.471 741.555 379.382
697.975 740.962 379.325
697.937 742.495 379.29
697.88 742.736 379.284
697.819 742.717 379.285
697.759 742.729 379.284
697.699 742.723 379.284
697.638 742.718 379.284
697.578 742.717 379.284
697.494 741.197 379.319
697.141 741.836 379.303
697.094 742.758 379.281
697.034 742.795 379.28
696.974 742.785 379.281
696.915 742.87 379.278
696.838 741.792 379.303
696.779 741.871 379.301
696.731 742.748 379.281
696.671 742.758 379.28
696.611 742.77 379.28
696.55 742.778 379.279
696.49 742.766 379.279
696.41 741.479 379.309
698.033 740.795 379.255
697.995 742.328 379.22
697.941 742.744 379.21
697.88 742.729 379.21
697.82 742.716 379.21
697.759 742.727 379.21
697.699 742.713 379.21
697.638 742.718 379.21
697.578 742.713 379.21
697.517 742.71 379.209
697.445 741.91 379.228
697.189 740.965 379.248
697.152 742.554 379.212
697.099 743.027 379.201
697.038 743.039 379.2
696.978 743.05 379.2
696.918 743.041 379.2
696.857 743.061 379.199
696.794 742.896 379.203
696.735 742.948 379.201
696.672 742.777 379.205
696.611 742.763 379.205
696.551 742.761 379.205
696.49 742.782 379.204
696.43 742.775 379.204
696.36 742.14 379.219
696.28 740.823 379.249
698.039 741.198 379.172
698.002 742.745 379.136
697.941 742.723 379.136
697.881 742.73 379.136
697.82 742.722 379.136
697.759 742.714 379.136
697.699 742.723 379.135
697.638 742.71 379.135
697.578 742.707 379.135
697.517 742.702 379.135
697.457 742.705 379.135
697.369 740.88 379.177
697.254 741.276 379.167
697.213 742.568 379.137
697.16 743.027 379.127
697.099 743.024 379.126
697.039 743.049 379.126
696.978 743.039 379.126
696.918 743.062 379.125
696.857 743.046 379.125
696.797 743.064 379.124
696.737 743.057 379.124
696.676 743.023 379.125
696.611 742.763 379.131
696.551 742.769 379.13
696.49 742.756 379.13
696.43 742.785 379.13
696.37 742.79 379.129
696.297 741.975 379.148
698.048 741.767 379.084
698.002 742.726 379.062
697.941 742.739 379.061
697.881 742.723 379.062
697.82 742.712 379.062
697.761 742.8 379.059
697.701 742.803 379.059
697.64 742.784 379.059
697.579 742.761 379.06
697.518 742.717 379.06
697.457 742.702 379.061
697.371 740.987 379.1
697.279 742.94 379.054
697.22 743.029 379.052
697.16 743.028 379.052
697.099 743.033 379.052
697.039 743.02 379.052
696.979 743.048 379.051
696.918 743.022 379.051
696.858 743.043 379.051
696.797 743.059 379.05
696.737 743.055 379.05
696.677 743.065 379.049
696.616 743.055 379.049
696.552 742.832 379.054
696.491 742.759 379.056
696.43 742.771 379.055
696.37 742.797 379.054
696.309 742.715 379.056
696.226 741.234 379.09
698.094 740.79 379.032
698.06 742.579 378.991
698.002 742.728 378.988
697.941 742.722 378.987
697.882 742.766 378.986
697.823 742.925 378.982
697.765 743.031 378.98
697.704 743.027 378.98
697.643 743.018 378.979
697.583 743.018 378.979
697.523 743.02 378.979
697.459 742.811 378.984
697.373 741.104 379.022
697.315 741.273 379.018
697.281 743.02 378.978
697.22 743.019 378.978
697.16 743.024 378.978
697.099 743.013 378.978
697.039 743.029 378.977
696.979 743.026 378.977
696.918 743.038 378.976
696.858 743.044 378.976
696.798 743.046 378.976
696.737 743.056 378.975
696.677 743.042 378.975
696.617 743.073 378.974
696.556 743.049 378.975
696.493 742.914 378.978
696.431 742.809 378.98
696.37 742.783 378.98
696.31 742.793 378.98
696.249 742.72 378.981
696.161 740.901 379.023
698.113 742.086 378.928
698.063 742.739 378.913
698.002 742.738 378.913
697.945 742.974 378.907
697.886 743.041 378.906
697.825 743.027 378.906
697.765 743.034 378.905
697.704 743.022 378.905
697.644 743.023 378.905
697.583 743.03 378.905
697.523 743.018 378.905
697.461 742.952 378.906
697.368 740.772 378.956
697.313 741.088 378.948
697.281 743.012 378.904
697.221 743.018 378.903
697.16 743.016 378.903
697.1 743.03 378.903
697.039 742.993 378.903
696.975 742.776 378.908
696.917 742.926 378.904
696.858 743.018 378.902
696.798 743.034 378.901
696.737 743.033 378.901
696.677 743.046 378.901
696.616 743.036 378.901
696.557 743.081 378.899
696.496 743.069 378.899
696.436 743.069 378.899
696.371 742.824 378.905
696.311 742.791 378.905
696.25 742.798 378.905
696.179 742.058 378.921
698.118 742.409 378.847
698.063 742.729 378.839
698.005 742.903 378.835
697.947 743.041 378.831
697.886 743.041 378.831
697.826 743.03 378.831
697.765 743.021 378.831
697.705 743.02 378.831
697.644 743.02 378.831
697.584 743.019 378.83
697.523 743.015 378.83
697.463 743.02 378.83
697.382 741.655 378.861
697.261 741.631 378.861
697.216 742.719 378.836
697.16 742.989 378.829
697.1 742.992 378.829
697.036 742.806 378.833
696.974 742.685 378.836
696.914 742.722 378.835
696.857 742.907 378.83
696.798 743.021 378.827
696.738 743.046 378.826
696.677 743.025 378.827
696.617 743.054 378.826
696.556 743.038 378.826
696.497 743.08 378.825
696.436 743.065 378.825
696.375 743.021 378.825
696.311 742.789 378.83
696.251 742.806 378.83
696.19 742.798 378.83
696.112 741.635 378.856
698.115 742.166 378.778
698.063 742.725 378.765
698.006 742.942 378.76
697.947 743.038 378.757
697.886 743.031 378.757
697.826 743.026 378.757
697.765 743.019 378.757
697.704 742.987 378.757
697.643 742.901 378.759
697.584 743.023 378.756
697.523 743.026 378.756
697.463 743.028 378.755
697.4 742.849 378.759
697.332 742.376 378.77
697.254 741.187 378.797
697.13 740.99 378.801
697.072 741.154 378.797
697.034 742.598 378.763
696.974 742.674 378.761
696.903 741.97 378.777
696.77 741.142 378.796
696.728 742.342 378.768
696.677 742.999 378.753
696.617 743.02 378.752
696.557 743.051 378.751
696.496 743.038 378.751
696.437 743.089 378.749
696.376 743.066 378.75
696.314 742.969 378.752
696.251 742.777 378.756
696.19 742.801 378.755
696.125 742.457 378.763
698.165 741.429 378.721
698.124 742.728 378.691
698.063 742.725 378.69
698.006 742.926 378.686
697.947 743.037 378.683
697.886 743.024 378.683
697.826 743.012 378.683
697.765 743.018 378.682
697.704 742.967 378.683
697.641 742.814 378.686
697.584 743.02 378.681
697.524 743.024 378.681
697.463 743.008 378.681
697.4 742.805 378.686
697.338 742.695 378.688
697.276 742.609 378.69
697.195 741.264 378.72
697.081 741.734 378.709
697.035 742.673 378.687
696.975 742.673 378.687
696.914 742.672 378.687
696.83 741.111 378.722
696.717 741.592 378.71
696.67 742.52 378.689
696.617 743.034 378.677
696.557 743.029 378.677
696.497 743.065 378.676
696.437 743.062 378.675
696.376 743.083 378.675
696.316 743.059 378.675
696.252 742.861 378.679
696.191 742.791 378.681
696.129 742.705 378.682
698.233 741.925 378.635
698.184 742.731 378.616
698.124 742.721 378.616
698.065 742.843 378.613
698.008 743.032 378.609
697.947 743.037 378.608
697.887 743.027 378.608
697.826 743.016 378.608
697.766 743.013 378.608
697.705 743.014 378.608
697.645 743.013 378.607
697.584 743.025 378.607
697.524 743.02 378.607
697.462 742.888 378.61
697.398 742.701 378.614
697.338 742.695 378.613
697.277 742.689 378.613
697.217 742.682 378.613
697.15 742.283 378.622
697.095 742.596 378.615
697.035 742.674 378.612
696.975 742.676 378.612
696.915 742.676 378.612
696.849 742.368 378.619
696.771 741.191 378.645
696.709 741.045 378.648
696.67 742.488 378.615
696.617 743.011 378.603
696.557 743.025 378.602
696.497 743.031 378.602
696.437 743.074 378.601
696.376 743.06 378.601
696.316 743.078 378.6
696.255 743.024 378.601
696.191 742.784 378.606
696.13 742.778 378.606
696.044 741.055 378.645
698.283 741.264 378.576
698.245 742.73 378.542
698.185 742.737 378.542
698.124 742.729 378.542
698.068 743.019 378.535
698.008 743.03 378.534
697.947 743.024 378.534
697.887 743.023 378.534
697.826 743.015 378.534
697.766 743.006 378.534
697.705 743.008 378.533
697.645 743.022 378.533
697.585 743.025 378.533
697.524 743.03 378.532
697.461 742.812 378.537
697.399 742.708 378.539
697.338 742.699 378.539
697.278 742.689 378.539
697.217 742.686 378.539
697.156 742.679 378.538
697.096 742.681 378.538
697.036 742.679 378.538
696.975 742.676 378.538
696.915 742.677 378.537
696.854 742.676 378.537
696.794 742.678 378.537
696.717 741.559 378.562
696.668 742.322 378.544
696.618 743.017 378.528
696.557 743.012 378.528
696.497 743.038 378.527
696.437 743.045 378.527
696.377 743.073 378.526
696.317 743.077 378.525
696.255 743.013 378.526
696.191 742.776 378.532
696.131 742.771 378.531
696.047 741.215 378.567
698.291 741.758 378.491
698.245 742.733 378.468
698.185 742.721 378.468
698.127 742.911 378.463
698.069 743.039 378.46
698.008 743.033 378.46
697.947 743.017 378.46
697.887 743.017 378.46
697.826 743.013 378.46
697.766 743.011 378.459
697.706 743.005 378.459
697.645 743.018 378.459
697.585 743.031 378.458
697.525 743.028 378.458
697.464 742.988 378.458
697.399 742.702 378.465
697.338 742.695 378.464
697.278 742.684 378.464
697.217 742.691 378.464
697.157 742.683 378.464
697.097 742.69 378.463
697.036 742.684 378.463
696.976 742.682 378.463
696.915 742.681 378.463
696.855 742.68 378.462
696.794 742.682 378.462
696.734 742.687 378.462
696.671 742.532 378.465
696.618 743.005 378.454
696.558 743.032 378.453
696.498 743.039 378.452
696.437 743.053 378.452
696.377 743.079 378.451
696.317 743.077 378.451
696.255 743.001 378.452
696.192 742.79 378.457
696.13 742.688 378.459
698.296 742.076 378.409
698.245 742.723 378.394
698.185 742.706 378.394
698.129 742.998 378.387
698.069 743.031 378.386
698.008 743.029 378.386
697.948 743.016 378.386
697.887 743.013 378.385
697.827 743.008 378.385
697.766 743.007 378.385
697.706 743.015 378.384
697.646 743.022 378.384
697.585 743.037 378.383
697.525 743.039 378.383
697.464 743.024 378.383
697.4 742.763 378.389
697.339 742.707 378.39
697.278 742.708 378.389
697.218 742.698 378.389
697.157 742.701 378.389
697.097 742.686 378.389
697.036 742.688 378.389
696.976 742.687 378.388
696.915 742.679 378.388
696.855 742.681 378.388
696.795 742.678 378.388
696.734 742.686 378.387
696.662 741.894 378.405
696.619 743.024 378.379
696.558 743.011 378.379
696.498 743.04 378.378
696.438 743.044 378.377
696.378 743.07 378.376
696.317 743.073 378.376
696.256 742.995 378.378
696.192 742.778 378.382
696.131 742.76 378.382
698.301 742.388 378.328
698.245 742.717 378.32
698.185 742.715 378.319
698.128 742.949 378.314
698.069 743.019 378.312
698.008 743.017 378.312
697.948 743.019 378.311
697.887 743.01 378.311
697.827 743.009 378.311
697.767 743.013 378.31
697.706 743.001 378.31
697.646 743.023 378.31
697.586 743.036 378.309
697.525 743.047 378.308
697.465 743.032 378.308
697.4 742.755 378.314
697.339 742.709 378.315
697.279 742.702 378.315
697.218 742.698 378.315
697.158 742.691 378.315
697.097 742.688 378.314
697.037 742.686 378.314
696.976 742.689 378.314
696.916 742.687 378.313
696.855 742.68 378.313
696.795 742.682 378.313
696.732 742.523 378.316
696.651 741.11 378.348
696.617 742.932 378.306
696.559 743.036 378.304
696.498 743.026 378.303
696.438 743.048 378.303
696.378 743.056 378.302
696.318 743.072 378.301
696.255 742.917 378.305
696.192 742.775 378.308
696.132 742.756 378.308
698.297 742.143 378.259
698.246 742.723 378.245
698.185 742.72 378.245
698.128 742.951 378.239
698.069 743.024 378.237
698.008 743.014 378.237
697.948 743.017 378.237
697.888 743.005 378.237
697.827 743.0 378.237
697.766 742.99 378.237
697.706 742.999 378.236
697.646 743.012 378.235
697.586 743.025 378.235
697.526 743.04 378.234
697.465 743.043 378.234
697.4 742.733 378.24
697.34 742.727 378.24
697.279 742.705 378.24
697.218 742.702 378.24
697.156 742.546 378.243
697.082 741.659 378.263
697.03 742.224 378.25
696.975 742.608 378.241
696.916 742.688 378.239
696.856 742.682 378.239
696.795 742.68 378.238
696.729 742.29 378.247
696.674 742.622 378.239
696.618 742.949 378.231
696.559 743.011 378.23
696.499 743.036 378.229
696.438 743.046 378.228
696.378 743.078 378.227
696.318 743.067 378.227
696.254 742.865 378.231
696.193 742.77 378.233
696.127 742.428 378.241
698.289 741.573 378.198
698.246 742.706 378.171
698.185 742.706 378.171
698.127 742.874 378.167
698.069 743.03 378.163
698.009 743.006 378.163
697.948 742.998 378.163
697.888 743.0 378.163
697.827 743.002 378.162
697.767 743.005 378.162
697.706 743.003 378.161
697.646 743.015 378.161
697.586 743.033 378.16
697.526 743.052 378.159
697.464 742.946 378.161
697.4 742.731 378.166
697.34 742.719 378.166
697.279 742.71 378.166
697.219 742.703 378.166
697.15 742.143 378.178
696.891 741.021 378.202
696.838 741.497 378.191
696.779 741.577 378.189
696.715 741.345 378.194
696.677 742.807 378.16
696.619 743.017 378.155
696.559 743.027 378.155
696.499 743.014 378.154
696.439 743.057 378.153
696.378 743.043 378.153
696.318 743.064 378.152
696.255 742.909 378.156
696.193 742.762 378.159
696.117 741.772 378.181
698.241 742.376 378.105
698.185 742.688 378.097
698.126 742.741 378.095
698.069 743.015 378.089
698.009 743.01 378.089
697.948 742.999 378.089
697.888 743.018 378.088
697.828 743.003 378.088
697.767 743.0 378.087
697.707 742.997 378.087
697.646 743.003 378.087
697.586 743.015 378.086
697.526 743.041 378.085
697.464 742.959 378.087
697.401 742.74 378.091
697.34 742.722 378.091
697.279 742.703 378.092
697.219 742.703 378.091
697.159 742.692 378.091
697.079 741.398 378.12
697.014 741.09 378.127
696.948 740.76 378.134
696.769 740.871 378.131
696.724 741.931 378.106
696.68 743.005 378.081
696.62 743.013 378.081
696.559 743.02 378.08
696.499 743.047 378.079
696.439 743.045 378.079
696.379 743.07 378.078
696.318 743.046 378.078
696.255 742.833 378.083
696.192 742.661 378.086
696.106 740.959 378.125
698.219 740.927 378.063
698.181 742.371 378.03
698.125 742.716 378.022
698.069 742.997 378.015
698.009 743.011 378.014
697.948 743.0 378.014
697.888 742.993 378.014
697.828 742.995 378.014
697.767 742.99 378.013
697.707 742.99 378.013
697.646 742.995 378.012
697.586 743.0 378.012
697.526 743.021 378.011
697.466 743.043 378.01
697.405 743.0 378.011
697.341 742.744 378.016
697.28 742.709 378.017
697.219 742.689 378.017
697.159 742.694 378.017
697.098 742.666 378.017
697.035 742.511 378.02
696.968 742.042 378.03
696.831 740.999 378.054
696.792 742.424 378.021
696.741 743.02 378.007
696.68 743.0 378.007
696.62 743.017 378.006
696.56 743.01 378.006
696.499 743.027 378.005
696.439 743.05 378.004
696.379 743.032 378.004
696.317 742.954 378.006
696.254 742.739 378.01
696.181 741.923 378.028
698.124 742.606 377.95
698.067 742.802 377.945
698.009 743.001 377.94
697.949 742.999 377.94
697.888 742.991 377.94
697.828 742.992 377.939
697.768 742.999 377.939
697.707 742.995 377.938
697.647 743.003 377.938
697.586 743.007 377.937
697.526 743.005 377.937
697.466 743.023 377.936
697.406 743.022 377.936
697.345 742.992 377.936
697.28 742.678 377.943
697.219 742.68 377.943
697.16 742.756 377.941
697.102 742.912 377.937
697.041 742.904 377.936
696.979 742.768 377.939
696.916 742.604 377.943
696.857 742.703 377.94
696.801 742.973 377.933
696.741 743.023 377.932
696.681 743.016 377.932
696.62 743.008 377.931
696.56 743.034 377.931
696.5 743.043 377.93
696.44 743.042 377.93
696.379 743.042 377.929
696.316 742.872 377.933
696.253 742.652 377.938
696.166 740.874 377.978
698.118 742.194 377.885
698.065 742.681 377.873
698.006 742.792 377.871
697.949 742.992 377.866
697.888 742.991 377.865
697.828 742.984 377.865
697.768 742.997 377.864
697.707 742.986 377.864
697.647 742.995 377.864
697.587 743.001 377.863
697.526 743.0 377.863
697.466 743.009 377.862
697.406 743.01 377.862
697.345 743.005 377.861
697.281 742.725 377.868
697.22 742.691 377.868
697.164 742.998 377.861
697.104 743.016 377.86
697.043 743.006 377.86
696.983 743.022 377.859
696.92 742.809 377.863
696.858 742.713 377.865
696.802 743.01 377.858
696.742 743.015 377.858
696.681 743.006 377.857
696.621 743.041 377.856
696.561 743.029 377.856
696.5 743.04 377.855
696.44 743.024 377.855
696.379 742.984 377.856
696.308 742.274 377.872
696.231 741.193 377.896
698.103 741.159 377.834
698.064 742.596 377.801
698.005 742.682 377.799
697.946 742.79 377.796
697.889 742.986 377.791
697.828 742.976 377.791
697.768 742.984 377.79
697.708 742.987 377.79
697.647 742.985 377.789
697.587 742.985 377.789
697.526 742.99 377.789
697.466 742.998 377.788
697.406 743.006 377.787
697.346 743.018 377.787
697.281 742.744 377.793
697.223 742.86 377.79
697.164 743.013 377.786
697.104 743.009 377.785
697.044 743.007 377.785
696.983 742.997 377.785
696.923 742.988 377.785
696.862 743.004 377.784
696.802 743.008 377.783
696.742 743.02 377.783
696.682 743.032 377.782
696.621 743.011 377.782
696.561 743.033 377.781
696.5 742.988 377.782
696.437 742.807 377.786
696.36 741.719 377.81
698.041 741.077 377.761
698.003 742.582 377.727
697.944 742.67 377.724
697.886 742.793 377.721
697.828 742.977 377.716
697.768 742.976 377.716
697.708 742.975 377.716
697.647 742.976 377.715
697.587 742.989 377.715
697.527 742.991 377.714
697.466 742.992 377.714
697.407 743.04 377.712
697.346 742.993 377.713
697.285 742.999 377.712
697.225 742.999 377.712
697.165 743.002 377.711
697.104 743.008 377.711
697.044 743.013 377.71
696.984 743.011 377.71
696.923 743.023 377.709
696.863 742.998 377.71
696.803 743.021 377.709
696.742 743.011 377.708
696.682 743.013 377.708
696.621 743.017 377.708
696.561 743.004 377.707
696.498 742.855 377.71
696.432 742.465 377.719
696.348 740.865 377.755
697.98 740.997 377.689
697.94 742.343 377.657
697.884 742.659 377.65
697.825 742.722 377.648
697.768 742.952 377.642
697.708 742.971 377.641
697.647 742.974 377.641
697.587 742.975 377.64
697.527 742.977 377.64
697.466 742.981 377.639
697.406 742.984 377.639
697.346 742.988 377.638
697.285 742.989 377.638
697.225 742.995 377.637
697.165 743.004 377.637
697.104 742.993 377.637
697.044 743.011 377.636
696.984 743.007 377.636
696.923 742.999 377.635
696.863 743.006 377.635
696.803 742.998 377.635
696.742 743.006 377.634
696.682 743.007 377.634
696.62 742.906 377.635
696.558 742.823 377.637
696.487 742.056 377.654
696.409 740.942 377.679
697.919 740.915 377.616
697.876 742.101 377.588
697.824 742.654 377.575
697.765 742.731 377.573
697.708 742.956 377.567
697.648 742.965 377.567
697.587 742.972 377.566
697.527 742.969 377.566
697.467 742.976 377.565
697.406 742.975 377.565
697.346 742.977 377.564
697.286 742.99 377.564
697.225 742.989 377.563
697.165 742.992 377.563
697.105 742.989 377.562
697.044 742.994 377.562
696.984 742.996 377.561
696.923 742.99 377.561
696.863 742.994 377.56
696.803 742.984 377.56
696.741 742.888 377.562
696.679 742.775 377.564
696.616 742.606 377.568
696.538 741.414 377.595
697.796 740.757 377.544
697.752 741.859 377.518
697.704 742.68 377.499
697.644 742.733 377.497
697.586 742.856 377.494
697.527 742.964 377.491
697.467 742.967 377.491
697.406 742.971 377.49
697.346 742.976 377.49
697.286 742.976 377.489
697.225 742.979 377.489
697.165 742.974 377.489
697.105 742.986 377.488
697.044 742.984 377.487
696.984 742.985 377.487
696.923 742.921 377.488
696.861 742.823 377.49
696.799 742.739 377.491
696.737 742.577 377.495
696.665 741.804 377.512
696.594 741.094 377.528
697.676 740.836 377.467
697.623 741.31 377.456
697.569 741.701 377.446
697.516 742.198 377.434
697.455 742.145 377.435
697.401 742.569 377.425
697.344 742.823 377.419
697.285 742.877 377.417
697.217 742.404 377.427
697.15 741.964 377.437
697.093 742.149 377.432
697.035 742.333 377.428
696.973 742.239 377.43
696.918 742.575 377.421
696.854 742.357 377.426
696.785 741.75 377.439
696.714 741.04 377.455
697.254 740.816 377.39
697.484 740.774 379.712
697.429 741.248 379.712
697.368 741.261 379.712
697.304 740.855 379.711
697.242 740.776 379.711
697.191 741.655 379.711
697.135 742.067 379.711
697.068 741.42 379.711
697.548 741.007 379.637
697.499 742.197 379.637
697.444 742.678 379.637
697.383 742.688 379.637
697.323 742.679 379.637
697.262 742.694 379.636
697.202 742.692 379.636
697.141 742.69 379.636
697.081 742.71 379.636
697.019 742.549 379.636
696.957 742.399 379.636
696.884 741.185 379.636
697.667 740.849 379.563
697.62 742.192 379.563
697.565 742.67 379.563
697.505 742.683 379.562
697.444 742.67 379.562
697.384 742.682 379.562
697.323 742.687 379.562
697.262 742.665 379.562
697.202 742.717 379.562
697.142 742.69 379.561
697.081 742.707 379.561
697.021 742.703 379.561
696.961 742.75 379.561
696.899 742.617 379.561
696.827 741.446 379.561
697.794 741.4 379.489
697.743 742.27 379.489
697.686 742.67 379.488
697.626 742.663 379.488
697.565 742.667 379.488
697.505 742.675 379.488
697.444 742.677 379.488
697.384 742.68 379.487
697.323 742.674 379.487
697.263 742.697 379.487
697.202 742.678 379.487
697.142 742.712 379.487
697.082 742.696 379.487
697.021 742.694 379.486
696.961 742.714 379.486
696.901 742.732 379.486
696.84 742.746 379.486
696.773 742.101 379.486
696.705 741.358 379.486
697.855 741.403 379.414
697.807 742.664 379.414
697.747 742.661 379.414
697.686 742.66 379.414
697.626 742.668 379.414
697.566 742.673 379.413
697.505 742.667 379.413
697.445 742.693 379.413
697.384 742.672 379.413
697.324 742.72 379.413
697.264 742.748 379.412
697.204 742.831 379.412
697.144 742.877 379.412
697.083 742.764 379.412
697.022 742.77 379.412
696.961 742.719 379.412
696.901 742.727 379.411
696.84 742.731 379.411
696.78 742.749 379.411
696.72 742.745 379.411
696.652 742.019 379.411
696.58 740.951 379.411
697.865 742.353 379.34
697.808 742.671 379.34
697.747 742.668 379.339
697.687 742.667 379.339
697.626 742.67 379.339
697.566 742.679 379.339
697.508 742.906 379.339
697.448 742.989 379.338
697.388 742.976 379.338
697.328 743.018 379.338
697.267 743.004 379.338
697.207 743.022 379.338
697.146 743.009 379.337
697.086 743.029 379.337
697.025 743.028 379.337
696.965 743.039 379.337
696.903 742.914 379.337
696.841 742.764 379.336
696.78 742.732 379.336
696.72 742.757 379.336
696.66 742.751 379.336
696.599 742.688 379.336
696.522 741.114 379.336
697.912 741.005 379.266
697.868 742.672 379.265
697.808 742.668 379.265
697.747 742.658 379.265
697.687 742.677 379.265
697.627 742.687 379.264
697.569 742.916 379.264
697.509 742.979 379.264
697.449 743.003 379.264
697.388 743.018 379.263
697.328 742.994 379.263
697.268 743.041 379.263
697.207 742.999 379.263
697.147 743.029 379.263
697.086 742.998 379.262
697.026 743.042 379.262
696.965 743.01 379.262
696.905 743.05 379.262
696.843 742.917 379.262
696.781 742.754 379.262
696.72 742.729 379.261
696.66 742.769 379.261
696.6 742.757 379.261
696.528 741.622 379.261
697.914 741.165 379.191
697.869 742.662 379.191
697.808 742.663 379.19
697.748 742.665 379.19
697.688 742.745 379.19
697.63 742.95 379.19
697.57 743.004 379.189
697.509 742.997 379.189
697.449 743.016 379.189
697.388 742.991 379.189
697.328 743.014 379.189
697.268 743.003 379.188
697.207 743.02 379.188
697.147 743.011 379.188
697.086 743.017 379.188
697.026 743.01 379.188
696.966 743.033 379.187
696.905 743.034 379.187
696.845 743.045 379.187
696.784 743.013 379.187
696.721 742.813 379.187
696.66 742.756 379.186
696.6 742.765 379.186
696.524 741.206 379.186
697.861 741.876 379.116
697.809 742.661 379.116
697.749 742.777 379.116
697.691 743.002 379.115
697.631 742.993 379.115
697.57 742.99 379.115
697.51 743.003 379.115
697.449 742.988 379.114
697.389 743.018 379.114
697.328 742.991 379.114
697.268 743.018 379.114
697.208 743.021 379.114
697.147 743.004 379.113
697.087 743.019 379.113
697.026 742.999 379.113
696.966 743.025 379.113
696.905 743.004 379.112
696.845 743.06 379.112
696.784 743.02 379.112
696.724 743.046 379.112
696.661 742.805 379.112
696.596 742.306 379.111
696.521 740.879 379.111
696.46 740.87 379.111
697.8 741.82 379.041
697.75 742.825 379.041
697.691 742.989 379.041
697.631 742.996 379.04
697.571 743.015 379.04
697.51 742.995 379.04
697.45 743.022 379.04
697.389 742.993 379.04
697.329 743.002 379.039
697.268 742.999 379.039
697.208 742.976 379.039
697.148 743.016 379.039
697.087 742.979 379.038
697.027 743.033 379.038
696.966 743.001 379.038
696.906 743.042 379.038
696.845 743.015 379.037
696.785 743.059 379.037
696.724 743.029 379.037
696.664 743.073 379.037
696.603 742.95 379.037
696.541 742.771 379.036
696.48 742.769 379.036
696.419 742.714 379.036
696.356 742.45 379.036
696.283 741.199 379.036
697.851 740.799 378.967
697.803 742.096 378.967
697.751 742.855 378.966
697.692 743.001 378.966
697.631 743.008 378.966
697.571 742.994 378.966
697.51 743.015 378.965
697.45 742.988 378.965
697.389 742.985 378.965
697.329 743.01 378.965
697.268 742.989 378.964
697.208 743.019 378.964
697.147 742.974 378.964
697.087 743.015 378.964
697.027 742.977 378.963
696.967 743.016 378.963
696.906 742.991 378.963
696.846 743.035 378.963
696.785 743.013 378.962
696.725 743.048 378.962
696.664 743.033 378.962
696.604 743.076 378.962
696.543 742.987 378.962
696.48 742.772 378.961
696.42 742.784 378.961
696.36 742.789 378.961
696.296 742.433 378.961
697.852 740.854 378.893
697.809 742.577 378.892
697.753 743.004 378.892
697.692 743.002 378.892
697.631 742.985 378.891
697.571 743.02 378.891
697.511 743.003 378.891
697.45 743.005 378.891
697.39 742.991 378.89
697.329 742.972 378.89
697.269 742.979 378.89
697.208 742.97 378.89
697.148 742.967 378.889
697.087 742.969 378.889
697.027 742.969 378.889
696.967 742.988 378.889
696.906 742.991 378.888
696.846 743.024 378.888
696.786 743.011 378.888
696.725 743.049 378.888
696.665 743.039 378.887
696.605 743.083 378.887
696.544 743.065 378.887
696.481 742.776 378.887
696.421 742.788 378.886
696.36 742.811 378.886
696.299 742.678 378.886
697.854 741.085 378.818
697.811 742.774 378.818
697.753 743.009 378.817
697.692 743.008 378.817
697.632 743.029 378.817
697.572 743.007 378.816
697.511 743.006 378.816
697.451 742.992 378.816
697.39 742.981 378.816
697.329 742.948 378.815
697.268 742.827 378.815
697.207 742.84 378.815
697.146 742.807 378.815
697.086 742.792 378.814
697.027 742.955 378.814
696.967 742.96 378.814
696.907 742.998 378.814
696.846 742.978 378.813
696.786 743.023 378.813
696.725 742.995 378.813
696.666 743.061 378.812
696.605 743.042 378.812
696.545 743.084 378.812
696.482 742.816 378.812
696.421 742.788 378.811
696.361 742.79 378.811
696.298 742.612 378.811
697.918 741.402 378.744
697.871 742.679 378.743
697.812 742.886 378.743
697.753 743.018 378.743
697.693 743.02 378.742
697.632 743.023 378.742
697.572 743.011 378.742
697.511 742.993 378.742
697.451 742.989 378.741
697.39 742.983 378.741
697.328 742.783 378.741
697.266 742.649 378.741
697.206 742.657 378.74
697.145 742.592 378.74
697.072 741.356 378.74
697.007 740.97 378.74
696.963 742.601 378.739
696.907 742.958 378.739
696.847 742.996 378.739
696.786 742.987 378.738
696.726 743.029 378.738
696.665 743.01 378.738
696.606 743.071 378.737
696.545 743.068 378.737
696.484 743.001 378.737
696.421 742.755 378.737
696.361 742.789 378.736
696.3 742.777 378.736
696.221 740.953 378.736
697.972 740.767 378.67
697.931 742.641 378.669
697.874 742.943 378.669
697.814 743.013 378.668
697.754 743.016 378.668
697.693 743.031 378.668
697.633 743.025 378.668
697.572 743.006 378.667
697.511 742.961 378.667
697.449 742.788 378.667
697.388 742.731 378.666
697.327 742.661 378.666
697.267 742.666 378.666
697.206 742.644 378.666
697.144 742.498 378.665
697.066 740.804 378.665
696.945 740.79 378.665
696.897 741.966 378.664
696.845 742.787 378.664
696.786 742.997 378.664
696.726 742.993 378.663
696.666 743.048 378.663
696.605 743.021 378.663
696.546 743.081 378.662
696.485 743.072 378.662
696.422 742.848 378.662
696.361 742.776 378.662
696.298 742.527 378.661
697.978 741.247 378.595
697.934 742.909 378.594
697.875 743.01 378.594
697.814 743.01 378.594
697.754 743.036 378.593
697.694 743.034 378.593
697.633 742.996 378.593
697.572 742.914 378.593
697.509 742.736 378.592
697.448 742.695 378.592
697.388 742.668 378.592
697.327 742.666 378.591
697.267 742.648 378.591
697.206 742.652 378.591
697.146 742.643 378.591
697.067 740.853 378.591
696.835 741.781 378.589
696.787 742.98 378.589
696.727 743.011 378.589
696.666 743.014 378.588
696.606 743.06 378.588
696.546 743.051 378.588
696.486 743.077 378.587
696.422 742.801 378.587
696.362 742.77 378.587
696.292 741.866 378.587
697.98 741.483 378.52
697.935 742.972 378.52
697.875 743.0 378.52
697.815 743.032 378.519
697.754 743.04 378.519
697.694 743.05 378.519
697.631 742.752 378.518
697.57 742.709 378.518
697.509 742.698 378.518
697.449 742.682 378.517
697.388 742.684 378.517
697.328 742.664 378.517
697.267 742.677 378.517
697.207 742.659 378.516
697.146 742.576 378.516
696.83 741.27 378.515
696.787 742.962 378.514
696.727 742.992 378.514
696.667 743.02 378.513
696.607 743.053 378.513
696.546 743.071 378.513
696.486 743.07 378.513
696.423 742.861 378.512
696.362 742.773 378.512
696.294 742.023 378.512
697.989 742.281 378.446
697.935 742.997 378.445
697.875 743.018 378.445
697.815 743.034 378.445
697.755 743.075 378.444
697.694 743.047 378.444
697.632 742.893 378.444
697.57 742.74 378.443
697.51 742.708 378.443
697.449 742.698 378.443
697.389 742.696 378.443
697.328 742.695 378.442
697.268 742.668 378.442
697.207 742.665 378.442
697.135 741.476 378.441
696.778 742.035 378.439
696.728 743.033 378.439
696.667 743.013 378.439
696.607 743.056 378.438
696.547 743.066 378.438
696.486 743.063 378.438
696.424 742.899 378.438
696.362 742.773 378.437
696.286 741.201 378.437
698.036 740.926 378.372
697.995 742.874 378.371
697.936 743.004 378.371
697.876 743.012 378.37
697.815 743.045 378.37
697.755 743.059 378.37
697.695 743.068 378.369
697.634 743.043 378.369
697.574 743.028 378.369
697.511 742.846 378.368
697.45 742.708 378.368
697.389 742.701 378.368
697.328 742.677 378.368
697.268 742.674 378.367
697.208 742.666 378.367
697.136 741.562 378.367
696.781 742.286 378.365
696.728 743.008 378.364
696.667 743.021 378.364
696.607 743.038 378.364
696.547 743.052 378.363
696.487 743.077 378.363
696.424 742.846 378.363
696.356 742.11 378.362
698.039 741.254 378.297
697.996 742.918 378.297
697.936 742.991 378.296
697.876 743.001 378.296
697.816 743.04 378.296
697.755 743.051 378.295
697.695 743.06 378.295
697.635 743.054 378.294
697.574 743.034 378.294
697.514 743.033 378.294
697.451 742.82 378.294
697.389 742.698 378.293
697.329 742.69 378.293
697.268 742.683 378.293
697.208 742.672 378.292
697.133 741.245 378.292
696.828 740.942 378.29
696.787 742.877 378.29
696.728 742.998 378.29
696.668 743.044 378.289
696.608 743.031 378.289
696.548 743.088 378.289
696.487 743.044 378.288
696.424 742.79 378.288
696.35 741.446 378.288
698.338 740.922 378.224
698.285 741.634 378.224
698.224 741.554 378.224
698.159 741.162 378.223
698.099 741.201 378.223
698.054 742.702 378.222
697.997 742.986 378.222
697.936 742.99 378.222
697.876 743.005 378.221
697.816 743.018 378.221
697.756 743.06 378.221
697.695 743.068 378.22
697.635 743.059 378.22
697.575 743.049 378.22
697.514 743.041 378.219
697.453 743.027 378.219
697.391 742.838 378.219
697.329 742.685 378.218
697.266 742.444 378.218
697.195 741.329 378.218
696.887 740.78 378.216
696.841 742.156 378.216
696.789 743.004 378.215
696.729 743.027 378.215
696.668 743.001 378.214
696.608 743.07 378.214
696.548 743.057 378.214
696.485 742.829 378.213
696.416 742.021 378.213
698.354 742.429 378.15
698.296 742.67 378.149
698.235 742.671 378.149
698.175 742.664 378.149
698.116 742.813 378.148
698.057 742.98 378.148
697.997 742.977 378.147
697.937 743.005 378.147
697.876 742.99 378.147
697.816 743.03 378.146
697.756 743.032 378.146
697.696 743.062 378.146
697.635 743.071 378.145
697.575 743.054 378.145
697.514 743.049 378.145
697.454 743.046 378.144
697.393 743.022 378.144
697.33 742.703 378.144
697.262 741.969 378.143
697.192 741.011 378.143
697.141 741.943 378.143
697.081 742.019 378.142
697.016 741.569 378.142
696.956 741.563 378.142
696.906 742.612 378.141
696.848 742.873 378.141
696.789 743.016 378.14
696.729 743.016 378.14
696.669 743.042 378.14
696.609 743.047 378.139
696.546 742.859 378.139
696.484 742.734 378.139
696.411 741.419 378.139
698.4 741.001 378.076
698.356 742.663 378.075
698.296 742.666 378.075
698.236 742.662 378.074
698.175 742.66 378.074
698.117 742.835 378.074
698.058 742.98 378.073
697.997 742.988 378.073
697.937 742.984 378.073
697.877 743.005 378.072
697.816 742.996 378.072
697.756 743.026 378.071
697.696 743.033 378.071
697.636 743.061 378.071
697.575 743.056 378.07
697.515 743.036 378.07
697.454 743.049 378.07
697.394 743.032 378.069
697.332 742.912 378.069
697.271 742.784 378.069
697.21 742.777 378.068
697.149 742.695 378.068
697.088 742.648 378.068
697.028 742.686 378.067
696.969 742.866 378.067
696.91 743.002 378.066
696.85 742.995 378.066
696.79 743.023 378.066
696.73 743.041 378.065
696.669 743.039 378.065
696.609 743.019 378.065
696.545 742.72 378.064
696.485 742.747 378.064
696.411 741.355 378.064
698.398 740.763 378.001
698.357 742.659 378.001
698.296 742.658 378.0
698.236 742.66 378.0
698.175 742.659 378.0
698.117 742.858 377.999
698.058 742.974 377.999
697.997 742.973 377.998
697.937 742.988 377.998
697.877 742.989 377.998
697.817 742.999 377.997
697.756 743.015 377.997
697.696 743.03 377.996
697.636 743.028 377.996
697.575 743.027 377.996
697.515 743.029 377.995
697.455 743.027 377.995
697.394 743.032 377.995
697.334 743.017 377.994
697.273 743.016 377.994
697.213 743.022 377.994
697.152 742.987 377.993
697.09 742.829 377.993
697.03 742.851 377.992
696.971 743.008 377.992
696.911 743.002 377.992
696.851 743.021 377.991
696.79 743.028 377.991
696.73 743.031 377.991
696.67 743.052 377.99
696.608 742.94 377.99
696.546 742.745 377.989
696.485 742.738 377.989
696.408 741.03 377.989
698.348 741.789 377.926
698.296 742.652 377.926
698.236 742.655 377.925
698.176 742.67 377.925
698.118 742.967 377.925
698.058 742.966 377.924
697.998 742.969 377.924
697.937 742.971 377.923
697.877 743.0 377.923
697.817 742.991 377.923
697.756 743.001 377.922
697.696 743.023 377.922
697.636 743.016 377.922
697.576 743.031 377.921
697.515 743.01 377.921
697.455 743.025 377.92
697.394 743.004 377.92
697.334 743.013 377.92
697.273 743.011 377.919
697.213 743.009 377.919
697.153 743.0 377.918
697.092 743.008 377.918
697.032 743.001 377.918
696.972 743.022 377.917
696.911 743.011 377.917
696.851 743.009 377.917
696.791 743.037 377.916
696.73 743.041 377.916
696.67 743.032 377.915
696.607 742.811 377.915
696.544 742.497 377.915
696.473 741.517 377.914
698.338 740.764 377.852
698.292 742.184 377.851
698.236 742.656 377.851
698.176 742.668 377.85
698.119 742.964 377.85
698.058 742.96 377.85
697.998 742.97 377.849
697.938 742.981 377.849
697.877 742.975 377.848
697.817 742.992 377.848
697.757 742.989 377.848
697.696 742.997 377.847
697.636 743.009 377.847
697.576 743.001 377.847
697.516 743.022 377.846
697.455 743.016 377.846
697.395 743.019 377.845
697.334 743.024 377.845
697.274 743.007 377.845
697.214 743.023 377.844
697.153 743.0 377.844
697.093 743.007 377.843
697.033 743.026 377.843
696.972 743.015 377.843
696.912 743.024 377.842
696.852 743.044 377.842
696.789 742.805 377.841
696.722 742.183 377.841
696.663 742.282 377.841
696.599 741.927 377.84
696.526 740.76 377.84
698.218 740.842 377.777
698.17 742.025 377.776
698.117 742.773 377.776
698.059 742.965 377.775
697.998 742.966 377.775
697.938 742.969 377.774
697.878 742.971 377.774
697.817 742.981 377.774
697.757 742.98 377.773
697.697 743.011 377.773
697.636 742.992 377.772
697.576 743.032 377.772
697.516 742.997 377.772
697.455 743.016 377.771
697.395 743.02 377.771
697.335 743.007 377.77
697.274 743.014 377.77
697.214 743.016 377.77
697.154 743.013 377.769
697.093 743.022 377.769
697.033 743.017 377.768
696.973 743.031 377.768
696.912 743.03 377.768
696.852 743.024 377.767
696.786 742.537 377.767
696.716 741.546 377.767
696.648 740.815 377.766
698.162 741.235 377.702
698.116 742.645 377.701
698.056 742.684 377.701
697.996 742.754 377.7
697.937 742.86 377.7
697.878 742.97 377.699
697.818 742.977 377.699
697.757 742.992 377.699
697.697 742.978 377.698
697.637 743.004 377.698
697.576 742.98 377.697
697.516 743.005 377.697
697.455 742.989 377.697
697.395 742.989 377.696
697.335 743.007 377.696
697.275 743.012 377.695
697.214 743.024 377.695
697.154 743.025 377.694
697.093 743.007 377.694
697.033 743.024 377.694
696.973 743.008 377.693
696.912 743.007 377.693
696.848 742.63 377.692
696.774 741.274 377.692
698.103 741.313 377.627
698.053 742.338 377.626
697.996 742.651 377.626
697.935 742.65 377.625
697.877 742.837 377.625
697.818 742.965 377.624
697.757 742.976 377.624
697.697 742.974 377.624
697.637 742.983 377.623
697.576 742.984 377.623
697.516 742.999 377.622
697.456 742.985 377.622
697.396 743.023 377.621
697.335 742.99 377.621
697.275 743.019 377.621
697.214 743.001 377.62
697.154 743.012 377.62
697.094 743.013 377.619
697.033 742.994 377.619
696.969 742.573 377.619
696.9 741.766 377.618
696.83 740.781 377.618
697.981 741.157 377.551
697.927 741.788 377.551
697.873 742.418 377.55
697.815 742.661 377.55
697.757 742.924 377.549
697.697 742.958 377.549
697.637 742.974 377.549
697.577 742.979 377.548
697.516 742.989 377.548
697.456 742.99 377.547
697.396 742.989 377.547
697.335 742.997 377.546
697.275 742.992 377.546
697.215 742.997 377.546
697.153 742.904 377.545
697.092 742.817 377.545
697.023 741.936 377.544
697.856 740.743 377.476
697.802 741.335 377.475
697.75 742.148 377.475
697.694 742.575 377.474
697.635 742.746 377.474
697.576 742.922 377.474
697.516 742.924 377.473
697.456 742.931 377.473
697.396 742.976 377.472
697.336 742.987 377.472
697.268 742.219 377.471
697.205 741.976 377.471
697.135 741.069 377.471
697.072 740.831 377.47
697.62 741.24 377.4
697.564 741.712 377.399
697.509 742.188 377.399
697.451 742.426 377.398
697.384 741.758 377.398
697.314 740.787 377.397