VERSION 0.7
FIELDS x y z
SIZE 4 4 4
TYPE F F F
COUNT 1 1 1
WIDTH 638
HEIGHT 1
VIEWPOINT 0.0 0.0 0.0 1.0 0.0 0.0 0.0
POINTS 638
DATA ascii
689.461015526 741.295506128 379.417071801
689.164372396 741.85665824 379.415955933
689.113698398 742.818826546 379.415491128
689.054028478 742.89753987 379.415277483
688.987108404 742.264243178 379.415266257
688.920096941 741.621971592 379.415257583
689.591887539 742.251993162 379.34289189
689.539534192 743.048799519 379.342464168
689.479978545 743.138295506 379.34223753
689.411285859 742.330477959 379.342265991
689.229037171 742.247216385 379.341686076
689.177608001 743.134782662 379.341232552
689.11719043 743.139632482 379.341029978
689.056643497 743.131778115 379.340831016
688.996297824 743.143688745 379.340626434
688.93587065 743.147595462 379.340424128
688.862367431 741.867353824 379.340586897
689.646852937 741.693528728 379.268971256
689.601098803 743.13797901 379.268349486
689.540652197 743.139537942 379.26813792
689.479999506 743.120857923 379.267932107
689.41970624 743.137475744 379.26771626
689.342119076 741.455725955 379.267983246
689.235018631 742.813378518 379.267175029
689.1777903 743.130991846 379.266873611
689.117386808 743.136784817 379.266660841
689.056930599 743.13740055 379.266449542
688.996474371 743.138014495 379.266238245
688.936137997 743.150398841 379.266023601
688.874805537 743.064961328 379.265836767
688.799685765 741.625524713 379.266034865
689.706675781 741.612974548 379.194934612
689.660858886 743.050821832 379.194304791
689.601082062 743.117717953 379.194064722
689.541545288 743.208188365 379.193817951
689.481222962 743.221512755 379.193593112
689.419746063 743.121450933 379.193400508
689.356065749 742.805000252 379.193269422
689.289144073 742.170227701 379.193228832
689.238342932 743.11859122 379.192738168
689.177929514 743.122969816 379.192515872
689.117889723 743.164040907 379.192283145
689.057073939 743.128904753 379.192072083
688.996751598 743.142227637 379.191847244
688.936266314 743.139548528 379.191626955
688.875991922 743.157580345 379.191400778
688.812929692 742.901829281 379.191252435
688.736203918 741.304233779 379.191485569
689.717400072 742.648428148 379.120369571
689.662020447 743.146716699 379.119996933
689.603830228 743.368987658 379.119702764
689.544159142 743.445828326 379.11944994
689.483683113 743.443618697 379.119219589
689.421870255 743.310124118 379.119026562
689.359415321 743.113573698 379.118851461
689.299039915 743.121245816 379.118618301
689.239483822 743.209379544 379.118362266
689.181240855 743.426470255 379.11806957
689.12086056 743.433662212 379.117836547
689.059924727 743.386296997 379.117619033
688.99718675 743.161949998 379.117451835
688.936595941 743.148468202 379.117224689
688.875947401 743.129316863 379.116999154
688.815730194 743.152525022 379.116761578
688.750319452 742.665696131 379.116669001
685.894572324 741.248453834 379.106215907
685.840770972 741.901738653 379.105799204
689.763406484 741.212333562 379.046748081
689.722475692 743.129147316 379.045962238
689.663360046 743.260096093 379.045684103
689.604699868 743.4357746 379.045393253
689.544305011 743.44109705 379.045150833
689.48387184 743.442656683 379.044909483
689.42323735 743.424445671 379.044673753
689.359862138 743.137078741 379.044514543
689.299189342 743.11510576 379.044279883
689.241382078 743.374545756 379.043965219
689.181638721 743.44384945 379.04370461
689.12117677 743.442582783 379.043464064
689.060729202 743.442728654 379.043223115
688.999462522 743.362432581 379.043005036
688.936781774 743.143266348 379.042826437
688.876401282 743.149999454 379.042583616
688.815891409 743.144026584 379.042344407
688.755606758 743.160171813 379.042098911
688.686888879 742.348122105 379.042088864
686.015924994 741.247667222 379.031801821
685.968124453 742.489829212 379.031207776
685.914072262 743.118040559 379.030788274
685.85419493 743.174187007 379.030531405
690.007802976 741.452156658 378.973422499
689.949016938 741.615035506 378.973125359
689.763577608 741.211840471 378.972487481
689.72264174 743.127716155 378.971691976
689.663247879 743.230903032 378.971411807
689.604836526 743.430578268 378.971104206
689.544316707 743.423189046 378.970855472
689.48374904 743.411100868 378.970608074
689.423076131 743.388677321 378.970363614
689.359681227 743.098937007 378.970195151
689.299343559 743.109436175 378.969941331
689.241425932 743.357598306 378.969619946
689.181667699 743.425001628 378.969349949
689.121282105 743.430794123 378.969097468
689.06078147 743.425288945 378.968848199
688.999945626 743.386864158 378.968608288
688.936905343 743.131949895 378.968429924
688.87654368 743.140092574 378.968176774
688.816057462 743.136003227 378.967927102
688.755719781 743.146501078 378.967673283
688.695444382 743.163115505 378.967417725
688.623486428 742.032430769 378.967488336
686.024174119 742.013233663 378.956707908
685.974920155 743.112221029 378.95614464
685.91452493 743.117067691 378.955892427
685.854728776 743.180746876 378.955623489
690.130520422 741.617044734 378.899676118
690.079259347 742.518481832 378.899159083
690.025297957 743.154731362 378.89871744
689.965084397 743.176979237 378.898450352
689.895441863 742.273243534 378.898446516
689.714500127 742.310421441 378.897653659
689.662244607 743.114197988 378.897164389
689.604470171 743.375982803 378.896829203
689.544534523 743.425523286 378.896554356
689.483583326 743.375330683 378.896307863
689.420140317 743.080426634 378.89613094
689.354240607 742.544259436 378.896022606
689.289061358 742.078845921 378.895894157
689.226647604 741.885021151 378.895688498
689.173499031 742.601094301 378.895224161
689.116741446 742.962740183 378.894860585
689.058979799 743.225780957 378.894525042
688.998195723 743.19200066 378.894273884
688.937100798 743.127692934 378.894031403
688.876657347 743.127364097 378.893770734
688.81636728 743.14209848 378.893505783
688.755928636 743.142241619 378.89324498
688.695571471 743.150386602 378.892981902
688.635310142 743.167943144 378.892716149
688.56247566 741.950738502 378.892801429
686.028630341 742.406313592 378.881719891
685.97522464 743.097135153 378.881262733
685.915107114 743.128814162 378.880992965
685.855118818 743.173184278 378.880719588
690.187806841 741.293111669 378.825837726
690.145673289 743.090488359 378.825056055
690.086273277 743.192192127 378.824756451
690.028067558 743.411182877 378.824423503
689.968030919 743.450365917 378.824141673
689.907611165 743.451924652 378.82387054
689.841480558 742.892642389 378.82375885
689.764053913 741.224019539 378.823962537
689.703241531 741.187019796 378.823702366
689.651533665 742.044139782 378.823188002
689.598833612 742.803820883 378.82270134
689.537298135 742.69580873 378.822461357
689.467700028 741.795996625 378.822446477
689.401085147 741.189155694 378.822348307
689.038772304 741.218707533 378.820715764
688.990428934 742.406241712 378.820107467
688.937368115 743.130493395 378.819630877
688.876953105 743.132518082 378.819359611
688.816518952 743.132662773 378.819088879
688.756262089 743.15021842 378.818813198
688.695799179 743.147539069 378.81854327
688.635503991 743.161330958 378.818268659
688.575136898 743.168061377 378.817996055
688.501530846 741.874644366 378.818093074
686.031350743 742.628925263 378.806780337
685.975759163 743.104640482 378.806374404
685.915320179 743.104310844 378.806103808
685.855796546 743.193874238 378.805807655
690.195392758 742.02387366 378.75143873
690.146593156 743.166163577 378.750833367
690.088080182 743.354540429 378.750499195
690.028790821 743.466671262 378.750186699
689.968164666 743.447520718 378.749911525
689.907648713 743.439192576 378.749633275
689.847195122 743.436988916 378.749353283
689.773588368 742.143063379 378.749440519
688.935930418 742.965850864 378.745277953
688.87711469 743.124495434 378.744952233
688.816752064 743.131225052 378.744669702
688.756389501 743.137960788 378.744387169
688.696002925 743.14233834 378.744105306
688.635716995 743.156599897 378.743820634
688.57545504 743.173216061 378.743535292
688.514149134 743.087309715 378.743279096
688.436425137 741.389045457 378.743481283
686.033537907 742.799169687 378.731855671
685.976025289 743.085787648 378.731493569
685.915998171 743.125466145 378.731201671
685.856105139 743.178312806 378.730906029
690.198053955 742.270997711 378.677177229
690.146665501 743.158606861 378.676634342
690.088990806 743.428868358 378.676266963
690.028891316 743.460999999 378.675967282
689.968370299 743.451735104 378.67567937
689.907796514 743.437288079 378.675392931
689.847323411 743.432728635 378.675103682
689.778442564 742.602476794 378.67504917
688.932173424 742.573439086 378.670989782
688.877482329 743.136708535 378.670539103
688.817013984 743.13261636 378.67024972
688.75664627 743.138406779 378.669957528
688.696259417 743.142317577 378.66966587
688.636121591 743.170684428 378.66936726
688.575643773 743.165661945 378.669078142
688.515343165 743.178042516 378.668784076
688.439157088 741.630372081 378.668933522
686.07861699 741.247392736 378.657711108
686.033828282 742.78313765 378.656983961
685.976717964 743.1088245 378.656600825
685.916302285 743.109904387 378.656309972
685.856960127 743.216410804 378.655989147
690.258706003 742.279348294 378.603284083
690.207364714 743.17114982 378.602730077
690.147336698 743.20986121 378.602418597
690.089580277 743.471657123 378.602043697
690.028910348 743.44732868 378.60175014
689.968475267 743.446063698 378.601450025
689.908001829 743.441031759 378.601150982
689.847437345 743.427058638 378.600854481
689.772028716 741.955298826 378.600972418
688.920248498 741.378886047 378.596929655
688.875344916 742.902910115 378.596195912
688.817328535 743.139176435 378.595828269
688.757554603 743.202840318 378.595509696
688.699472368 743.432639395 378.595143892
688.639305519 743.457716486 378.594836289
688.577131033 743.285631187 378.594584738
688.51530643 743.147906562 378.594323418
688.43930251 741.617685525 378.594457975
686.091583532 742.476678152 378.582495292
686.037495927 743.098774515 378.58201796
685.976969742 743.088562516 378.58172039
685.917128802 743.145645848 378.581403688
685.857096191 743.183905969 378.581092337
690.312522909 741.617324792 378.529601376
690.26794946 743.173330495 378.528848613
690.207403809 743.160767322 378.528541783
690.149033708 743.361856593 378.528174213
690.089690716 743.467402023 378.527833805
690.029087554 743.449190955 378.527528581
689.968613783 743.443686804 378.527219744
689.908116093 743.435833787 378.526911575
689.84576423 743.245889435 378.526655173
688.870498804 742.403100743 378.521928346
688.817643157 743.145743475 378.521406816
688.759517574 743.370845901 378.521032419
688.699843695 743.443896168 378.52070125
688.639484966 743.449689878 378.520389201
688.578963437 743.43949571 378.520081698
688.516155933 743.204804582 378.519838017
688.448001804 742.445041979 378.51974361
686.139902282 741.244375028 378.508289689
686.098509279 743.112720182 378.50744813
686.037747968 743.078977873 378.507147321
685.977691124 743.11441861 378.506826844
685.917394647 743.126325884 378.506513057
685.85747672 743.175409113 378.506188701
690.31345429 741.695449233 378.455407775
690.268147118 743.178959357 378.454665695
690.207610708 743.166864158 378.454348804
690.149144428 743.358068623 378.453974116
690.089733984 743.456550276 378.453625789
690.029279132 743.452464639 378.453306621
689.968752334 743.441313391 378.452989462
689.908244723 743.432046564 378.452671767
689.847842547 743.433134023 378.452351128
689.781739079 742.874319352 378.452189666
689.704526485 741.224520037 378.452338362
688.923217559 741.623562639 378.448060634
688.878359964 743.151223903 378.447306001
688.817799637 743.136779932 378.446989778
688.760349101 743.427736682 378.446586732
688.700176899 743.451409039 378.446259672
688.639765063 743.451547841 378.445939303
688.579343716 743.450752573 378.4456192
688.517273993 743.288076576 378.445345118
688.455659611 743.170117976 378.445058323
688.384457612 742.1105961 378.445039208
686.141908594 741.397737671 378.433389677
686.098732902 743.090572275 378.432588087
686.038450592 743.103431264 378.432264102
685.978101038 743.109686549 378.431941994
685.917809031 743.121593305 378.431618279
685.858116086 743.192331645 378.43127784
690.308621872 741.207533131 378.381375097
690.268282461 743.178468441 378.380484516
690.207764948 743.167789592 378.380157295
690.148200696 743.250726873 378.379803459
690.089882713 743.456055451 378.379414828
690.029403582 743.449145912 378.379086535
689.969005914 743.450236617 378.378755968
689.908382922 743.429199057 378.378431691
689.848037939 743.435463705 378.378099653
689.78762104 743.434665754 378.377769623
689.709397088 741.685105271 378.377936753
688.983029696 741.541517409 378.374014485
688.938239495 743.075357666 378.373248168
688.878631731 743.154021774 378.372895547
688.818104658 743.142404056 378.372568593
688.760538849 743.421600801 378.372158962
688.700414129 743.449496609 378.371820774
688.640069145 743.455761163 378.371488736
688.57960911 743.450727008 378.371159909
688.517222754 743.256516223 378.370884865
688.455823731 743.159267652 378.370582255
688.390439748 742.670671384 378.370390902
686.096959323 742.87228678 378.357783805
686.038731365 743.086456311 378.35739266
685.978506166 743.104484489 378.357057278
685.918256958 743.120154861 378.356722565
685.858362313 743.170645544 378.356377954
690.259994298 742.350737331 378.306538517
690.207856836 743.162591673 378.305967527
690.148531971 743.268598673 378.305597205
690.090084228 743.460744452 378.305202394
690.029551977 743.448178781 378.304865781
689.969096485 743.443151261 378.304527025
689.908588225 743.432941514 378.304189743
689.848113485 743.426023739 378.303851524
689.786791448 743.335896143 378.303536961
689.706770162 741.409386874 378.303744469
688.991519854 742.352291086 378.299394186
688.939263201 743.152440126 378.298826524
688.878817233 743.148347991 378.298487502
688.820043663 743.308495526 378.298101788
688.760972806 743.439447773 378.297724374
688.70065625 743.448064532 378.297381739
688.640239016 743.446794181 378.297041915
688.579908097 743.454000567 378.296699681
688.51704702 743.212729678 378.296428088
688.456050167 743.154537199 378.296104446
688.388259368 742.429137168 378.295970487
686.091077852 742.250580979 378.283094212
686.039155977 743.083607308 378.282517203
685.979031073 743.111045491 378.282169217
685.918680898 743.116360774 378.281827521
685.859035249 743.190864845 378.281466155
690.257551216 742.097029154 378.232429326
690.207895947 743.152210681 378.231779233
690.149481471 743.34718403 378.23137369
690.090290487 743.465899499 378.230989827
690.029681222 743.445330995 378.230645562
689.969249336 743.442182199 378.230296344
689.908817475 743.439035849 378.229947125
689.848007323 743.39873895 378.229608468
689.769203439 741.591346535 378.229772184
689.051281361 742.26659224 378.22537886
688.999972013 743.159333052 378.224774947
688.939583256 743.160419801 378.224424525
688.880200739 743.260325514 378.224046009
688.821695042 743.446340365 378.223643014
688.761258325 743.442717147 378.223293931
688.700927083 743.449452167 378.222941903
688.640610178 743.457595303 378.222589475
688.580125567 743.449268517 378.222241729
688.517053371 743.186825032 378.221966227
688.456314972 743.153574739 378.221625566
688.381162967 741.704819427 378.221687324
686.145604225 741.629662785 378.208754508
686.099337508 743.017621111 378.208009808
686.039757902 743.098171424 378.207636795
685.979321179 743.094547641 378.207287712
685.919473941 743.148814878 378.206922171
685.859075478 743.148948452 378.20657202
690.251135774 741.45321077 378.158431041
690.207173892 743.067078539 378.157612189
690.14997083 743.38058067 378.157163022
690.090295439 743.451284842 378.156782881
690.029963873 743.457548592 378.156421059
689.969402253 743.441219631 378.15606566
689.908955689 743.436189848 378.155707049
689.845031264 743.089612614 378.155445538
689.588421887 741.613771457 378.154424945
689.528037581 741.614855805 378.154064596
689.058952482 742.997371014 378.15079123
689.000162964 743.155073315 378.150386355
688.940252947 743.202735763 378.150012764
688.882183205 743.431124646 378.149587794
688.821956927 743.447728285 378.149223033
688.761567837 743.448342822 378.148862817
688.70117874 743.448956606 378.148502602
688.640847175 743.45522045 378.14814078
688.580041326 743.414906663 378.1477922
688.516978432 743.152937176 378.147506635
688.444260552 741.942788437 378.147490631
686.154641535 742.473512927 378.133658195
686.100595587 743.097063149 378.133120884
686.040139362 743.091084616 378.132762542
685.980315865 743.147243849 378.132386536
685.919562421 743.112076524 378.132036493
685.859987961 743.192692746 378.131653533
690.195831252 741.938939356 378.083741666
690.149247648 743.294898316 378.082986208
690.090405838 743.447025789 378.08257299
690.030160244 743.461292933 378.082198965
689.969545593 743.4393165 378.081835244
689.909113055 743.435224597 378.081466439
689.848699706 743.433017208 378.081097098
689.778458772 742.465680338 378.081002136
689.710181619 741.691198843 378.080852347
689.657358655 742.434414148 378.080271087
689.605129474 743.235942644 378.079673249
689.544198625 743.182913514 378.079318357
689.47517491 742.335115102 378.079189411
689.405009855 741.375229942 378.07909233
689.060034884 743.081096778 378.076387552
689.000339555 743.149403489 378.075998164
688.941881287 743.339197056 378.075574239
688.88265615 743.453679425 378.075171723
688.822257139 743.452880151 378.074801982
688.761834162 743.449727211 378.07443291
688.701387261 743.444224841 378.074064505
688.640978696 743.442487263 378.07369503
688.579166253 743.302880227 378.073364751
688.504104465 741.862105752 378.073404384
686.156758955 742.637787023 378.058755082
686.101049222 743.097503811 378.058254419
686.040899454 743.121181763 378.057877719
685.980347057 743.105318988 378.05751226
685.92050877 743.159586222 378.057126863
685.860167139 743.164422044 378.05675552
690.192625867 741.609928886 378.009643955
690.147939867 743.151804727 378.008825715
690.09042531 743.433837126 378.008365638
690.030179286 743.447622555 378.007981822
689.969727266 743.441177879 378.007603758
689.90931834 743.43896536 378.00722449
689.84887593 743.433464541 378.006846158
689.788438424 743.428445294 378.006467688
689.725719754 743.199401626 378.006152907
689.66765902 743.427796061 378.005708079
689.607494357 743.449571663 378.005321992
689.547128609 743.451599489 378.004941519
689.486264666 743.404701477 378.004574955
689.4252568 743.343669326 378.00421241
689.361173378 742.980598633 378.003935731
689.291898291 742.107674291 378.003804001
689.236124481 742.560658775 378.003295324
689.174699672 742.458680233 378.002944419
689.110643546 742.098290149 378.002666979
689.062079708 743.259338416 378.001957005
689.002509485 743.339491692 378.001554321
688.943207516 743.445989202 378.001144148
688.882889522 743.452706762 378.000762342
688.822451907 743.44767679 378.000383875
688.762110155 743.452061199 378.000002732
688.701677262 743.447494919 377.999624133
688.640525817 743.372362421 377.999265596
688.57531181 742.898261251 377.999020483
686.151610347 742.088492414 377.984054831
686.10159875 743.107361773 377.983385277
686.041232922 743.109381693 377.983004806
685.981221872 743.1462431 377.98261443
685.920764944 743.139316472 377.982236503
685.860753786 743.176167244 377.98184613
690.138937753 742.253080132 377.934880042
690.087474372 743.128935866 377.934241218
690.02984866 743.399612594 377.933774442
689.969865787 743.43880155 377.933373477
689.909538019 743.444119697 377.93298214
689.849023394 743.431087361 377.932596021
689.788781971 743.444885163 377.932202274
689.727917573 743.39750299 377.93182592
689.667934752 743.436697023 377.931424953
689.607539913 743.435428406 377.931035489
689.547188187 743.438393829 377.930644821
689.486831738 743.440895276 377.930254286
689.426384191 743.434450457 377.929866293
689.366018124 743.436007388 377.929476026
689.305699959 743.442268639 377.929084422
689.245410538 743.451352709 377.928692015
689.18470436 743.419508736 377.928311243
689.124208976 743.408365999 377.927924587
689.064273958 743.452254568 377.927522285
689.003812027 743.444397117 377.927134695
688.943498677 743.451131191 377.926742956
688.883137418 743.45316038 377.926352554
688.822608372 743.438711835 377.925966837
688.762319016 743.447802305 377.925574429
688.701847512 743.439004667 377.925187105
688.639492838 743.245268201 377.924852359
688.563380206 741.700415292 377.924901725
686.145838177 741.477960118 377.909371989
686.101985306 743.101214918 377.908520685
686.04192115 743.132421417 377.908121989
685.98145438 743.124088696 377.907734533
685.921548377 743.170826813 377.907331421
685.861163033 743.170490665 377.906941693
690.070256864 741.422969352 377.860515111
690.022053833 742.618571957 377.859775457
689.966546005 743.096798501 377.859239749
689.909705017 743.444100467 377.858741261
689.849180455 743.429652721 377.858345616
689.786868708 743.239692384 377.857999868
689.72763338 743.35185539 377.857568228
689.668038128 743.428671709 377.857146638
689.607676576 743.430232544 377.856746442
689.547300562 743.430373124 377.85634665
689.487039608 743.441813352 377.855943645
689.426654015 743.441013181 377.85554412
689.366364324 743.44963125 377.855141918
689.305940416 743.445068356 377.854743463
689.245583575 743.447091849 377.854343135
689.185260313 743.452413055 377.85394187
689.12478847 743.44314264 377.853544753
689.06432627 743.434819188 377.853147367
689.004050955 743.444849043 377.852744763
688.943636591 743.441223511 377.852346042
688.883270254 743.442314442 377.851945979
688.822918239 743.444811888 377.851545517
688.762384103 743.429423861 377.851150139
688.701620165 743.391467969 377.850761178
688.630554128 742.341782283 377.850659844
686.15014061 741.856816099 377.834407871
686.1027074 743.128019954 377.833646725
686.042216317 743.116860037 377.833250145
685.982444246 743.176311517 377.832833491
685.921737492 743.143971428 377.832442933
685.861984483 743.205294999 377.832025747
689.887245315 741.221999555 377.785132103
689.826878602 741.222614132 377.784722248
689.779805207 742.528714462 377.783941253
689.725891888 743.163092113 377.783351224
689.668141615 743.420657216 377.78286832
689.607937809 743.437270118 377.782453917
689.547599819 743.440705443 377.78204326
689.487199556 743.438025132 377.781634342
689.426799318 743.435347268 377.781225423
689.366408588 743.433603097 377.780816239
689.306061065 743.436102189 377.780405848
689.245703962 743.437660434 377.779995725
689.185265341 743.431213072 377.779587878
689.125004076 743.442183253 377.779175079
689.06459902 743.43903219 377.778766295
689.004237135 743.440120907 377.778356305
688.943860821 743.439792475 377.777946718
688.883115693 743.403244273 377.777547428
688.821018912 743.233955476 377.777185876
688.756244653 742.801721654 377.776899077
688.681937622 741.43331087 377.776878426
686.150464798 741.84498375 377.759554824
686.102964528 743.109162417 377.758785747
686.043182512 743.167197733 377.758359567
685.983213092 743.206828828 377.75793862
685.923392785 743.261103773 377.75751351
685.863639406 743.321951459 377.757086532
689.7690839 741.458517425 377.709984762
689.720706056 742.636073341 377.709230383
689.666457692 743.237108019 377.708639905
689.608045663 743.429244944 377.708165674
689.54763073 743.424684494 377.707747363
689.48728761 743.427176384 377.707327046
689.426939782 743.429205992 377.706906861
689.366630234 743.434994935 377.706485608
689.306234452 743.432315141 377.706066761
689.245905799 743.436227851 377.705646041
689.185639391 743.446253468 377.705223583
689.125224443 743.441691418 377.704805272
689.064823877 743.438541813 377.704386559
689.004341831 743.427390364 377.703970121
688.943950814 743.425178592 377.703551142
688.881619291 743.232397129 377.703186341
688.819273948 743.03825836 377.702821925
688.744425436 741.616231308 377.702806589
686.153426169 742.092139112 377.684628148
686.103739291 743.141139796 377.683910316
686.045126048 743.313516427 377.683441703
685.986138898 743.449172983 377.682983529
685.925882132 743.460145375 377.682560801
685.865677963 743.476283239 377.682136605
689.707267883 741.298623789 377.635339942
689.659810721 742.566156832 377.634550056
689.605527624 743.163340912 377.633950745
689.54588858 743.23453799 377.633500968
689.486364779 743.317052598 377.633047974
689.426323368 743.348734736 377.632609431
689.366636331 743.415218551 377.632160994
689.306249742 743.413002123 377.631732089
689.246021384 743.426324837 377.631298765
689.185505474 743.411408265 377.63087347
689.124874697 743.385211053 377.630451382
689.063663927 743.30205482 377.630045487
689.003090644 743.281503908 377.629621793
688.938713528 742.887392988 377.6293043
688.869461126 742.014498988 377.629122922
688.802365997 741.353462442 377.628881314
686.149245579 741.637909826 377.60990087
686.103962918 743.118992266 377.609050273
686.046504348 743.404325336 377.608539619
685.986745338 743.463741004 377.608093192
685.926272524 743.453056682 377.607666693
685.866274152 743.48896552 377.607226949
689.592295992 741.84529588 377.560034931
689.539150538 742.553764049 377.559394055
689.482797605 742.947237995 377.55884273
689.42327259 743.029193917 377.558379966
689.363680991 743.104610767 377.557919062
689.303308554 743.103344638 377.557479959
689.243348125 743.142540123 377.557029352
689.175409652 742.398242539 377.556801487
689.110911279 741.991783954 377.556477576
689.051075925 742.043262582 377.556023477
688.985326579 741.513950798 377.555734493
686.09900775 742.588255148 377.534334818
686.046373052 743.34688265 377.533679682
685.98707374 743.451003994 377.533210618
685.926845064 743.463856003 377.5327675
685.86664985 743.479994241 377.532323448
689.346250087 741.372413277 377.484081278
689.286710409 741.452489625 377.483609121
689.227961188 741.610193749 377.483114896
686.088198764 741.482636952 377.459782798
686.045024547 743.169902542 377.458853729
685.986908791 743.389816889 377.458341817
685.92720671 743.453944304 377.457874195
685.867236513 743.491741041 377.457414058
686.086252813 741.247423392 377.384983328
686.045137756 743.136471781 377.383986966
685.985138328 743.170958338 377.383517842
685.926289192 743.318410702 377.383016603
685.866730695 743.396199476 377.382535169
686.033621736 741.960978936 377.309444883
685.985318319 743.143646552 377.308639412
685.925098323 743.15603237 377.308166643
685.8650459 743.184875027 377.307689196
685.980194807 742.595497912 377.233909051
685.925512636 743.15129292 377.233271867
685.865507915 743.18438058 377.232783286
685.966947216 741.249514582 377.159405509
685.923642453 742.922201721 377.158440873
685.865821325 743.169292253 377.157881524
685.908707425 741.410062176 377.083974641
685.861469616 742.696060449 377.08311001