VERSION 0.7
FIELDS x y z
SIZE 4 4 4
TYPE F F F
COUNT 1 1 1
WIDTH 1148
HEIGHT 1
VIEWPOINT 0.0 0.0 0.0 1.0 0.0 0.0 0.0
POINTS 1148
DATA ascii
636.010969381 739.053488333 371.842875096
635.60318442 739.090069787 371.842929122
635.19368567 739.091859731 371.842988194
634.78647964 739.140193992 371.843040515
634.375546477 739.112864039 371.84310381
633.944189845 738.670918976 371.843227238
633.529668469 738.570745024 371.843301098
633.121281519 738.59510553 371.843356897
632.712361865 738.608651667 371.843414264
632.296893688 738.489256773 371.843490911
631.809156217 736.902729083 371.843780341
640.012937946 737.148795926 371.280058023
639.658287929 738.264065356 371.279955604
639.249298748 738.276200028 371.280013176
638.787174657 737.20964738 371.280227192
637.963472934 737.117727249 371.280359187
637.630267544 738.668342244 371.280193628
637.216275566 738.578915536 371.28026593
636.810967286 738.665775878 371.280312664
636.419089785 739.025293309 371.280319853
636.011860552 739.073156519 371.280372243
635.602547008 739.078706327 371.28043077
635.19439169 739.10776918 371.280485886
634.785379237 739.119431389 371.280543526
634.377478463 739.153661716 371.280597893
633.965365181 739.102374274 371.280664663
633.534054127 738.661354488 371.280787957
633.121176792 738.594556065 371.280856977
632.712164537 738.606222316 371.280914616
632.303962752 738.634341841 371.280969869
631.862980995 737.996997934 371.281121637
646.113426197 736.271026965 370.716795355
645.303432092 736.457384021 370.71688699
644.916091406 736.909002953 370.716880822
644.486102229 736.494818484 370.717000224
640.389475405 736.479438201 370.71759577
640.05932725 738.092117846 370.71742121
639.657627549 738.252235639 370.71745732
639.250166892 738.295400733 370.717510391
638.840251391 738.288730253 370.71757069
638.421355619 738.099752052 370.717657429
638.054223723 738.961627915 370.717591761
637.646346129 738.996328825 370.71764606
637.237472767 739.010814716 370.71770329
636.827997442 739.013080224 370.717762293
636.419934564 739.044019672 370.717817137
636.010968424 739.056622105 370.717874641
635.602836166 739.086153096 370.71792969
635.193939526 739.100166431 370.717986989
634.785483096 739.123116413 370.718042992
634.376517072 739.135721196 370.718100495
633.969056202 739.178881966 370.718153567
633.555646279 739.101271526 370.718224155
633.134500411 738.866614323 370.718317519
632.712198818 738.60849484 370.718414286
632.303881224 738.634263333 370.718469881
631.895285808 738.654391795 370.718526293
631.432744743 737.579374211 370.718741537
646.92692176 736.157329316 370.154193182
646.582626613 737.482812081 370.154060275
646.19588424 737.946577302 370.154052346
645.78386305 737.897159412 370.154118844
645.377975567 737.9722614 370.154167284
644.969657964 737.998029705 370.154222878
644.561132025 738.019568598 370.154279086
644.098776176 736.948311067 370.154493784
640.455105665 737.813369141 370.154902307
640.087119975 738.657912198 370.154839152
639.684636888 738.802126525 370.154877568
639.265922439 738.616829344 370.154963773
638.851560139 738.51988479 370.155037165
638.461950603 738.925443989 370.155037677
638.054559251 738.970016036 370.155090544
637.645894058 738.988727956 370.155147162
637.23799334 739.022959412 370.155201529
636.828240184 739.0195847 370.15526135
636.419135208 739.029368622 370.155319262
636.01146596 739.068299133 370.155372948
635.602175657 739.074320746 370.155431406
635.194136014 739.105731904 370.155486182
634.785239495 739.119747683 370.15554348
634.376968219 739.146456495 370.155598938
633.968395831 739.167052437 370.155655283
633.560610709 739.2036306 370.155709309
633.151644783 739.216237358 370.155766812
632.72906604 738.952491476 370.155864396
632.304147252 738.641240554 370.155968869
631.894810593 738.646321096 370.156027463
631.472029135 738.378459904 370.156125644
646.991534303 737.470599655 369.591502715
646.604328906 737.924965072 369.591496149
646.196080649 737.952141177 369.591551539
645.787068371 737.963806958 369.591609178
645.378009922 737.974535428 369.591666954
644.969391201 737.99419077 369.591723435
644.560934682 738.017138965 369.591779438
644.152593931 738.042437346 369.5918351
643.65807636 736.318267408 369.592144493
640.797910782 736.459213993 369.592539372
640.488013439 738.483003668 369.592305188
640.097200475 738.864132164 369.592309243
639.688095457 738.87391524 369.592367156
639.279824224 738.900624898 369.592422614
638.854367551 738.578454418 369.59252867
638.462656369 738.941348267 369.59253537
638.053574592 738.951603147 369.592593215
637.647086175 739.014505628 369.592643423
637.23772648 739.019118502 369.592702086
636.828274345 739.021854781 369.59276102
636.419655887 739.04151548 369.592817501
636.010458195 739.049417166 369.592875686
635.602742688 739.087408581 369.592929508
635.193707109 739.098601335 369.592987216
634.785574875 739.128132796 369.593042264
634.377071981 739.150139545 369.593098404
633.968291127 739.166503441 369.593155362
633.560205036 739.196971648 369.593210275
633.151609513 739.217097947 369.593266688
632.738061888 739.136692018 369.593337681
632.303394059 738.627526627 369.593470858
631.895308111 738.657997748 369.59352577
631.457199319 738.078977669 369.593669078
650.202907559 736.146077627 369.028720161
649.812045562 736.526210712 369.028724361
649.41398877 736.760282887 369.028749745
648.984044509 736.347010236 369.028869014
647.338968225 736.210413486 369.029126151
647.012981792 737.907579906 369.028939338
646.605521181 737.95074594 369.028992409
646.195397158 737.939842287 369.029053322
645.786685887 737.957618777 369.029110076
645.378020986 737.976336619 369.029166693
644.9693792 737.995523727 369.029223241
644.561246822 738.025052274 369.02927829
644.152280858 738.03765828 369.029335794
643.66155966 736.390558182 369.029634008
640.467167127 738.06138105 369.029866337
640.096609474 738.853710903 369.029810755
639.688338292 738.880421596 369.029866212
639.279163844 738.888795181 369.029924329
638.775170246 736.972253218 369.030261622
638.444659267 738.577567223 369.030088131
638.053655182 738.954815803 369.030092749
637.645823801 738.990454869 369.030146911
637.238108299 739.028446378 369.030200733
636.82879495 739.034000135 369.030259259
636.419481568 739.039553233 369.030317785
636.011233552 739.066734226 369.030373175
635.601873842 739.071346818 369.030431837
635.194320519 739.112630711 369.030485181
634.784891217 739.115830522 369.030544049
634.376596734 739.142068187 369.030599575
633.968510619 739.172535924 369.030654488
633.560007763 739.194543425 369.030710627
633.151481759 739.216081002 369.030766835
632.733117311 739.03788917 369.03085201
632.303984103 738.64108166 369.030968892
631.880621498 738.361422653 369.031068783
631.400176451 736.922937847 369.031336742
650.618553345 736.270654723 368.466142762
650.279373985 737.699992643 368.465994793
649.893121003 738.173692954 368.465985423
649.489873626 738.302391507 368.466026089
649.064122906 737.97425159 368.466133011
648.56814325 736.220400001 368.466446708
647.002625037 737.698904907 368.466469603
646.604327921 737.92809828 368.466495694
646.19533906 737.940239438 368.466553265
645.76169588 737.45187535 368.466683425
645.374423207 737.904875001 368.466677057
644.969645182 738.002500008 368.46672223
644.560702247 738.015573494 368.466779665
644.144906971 737.889538204 368.466857276
640.390375582 736.504018981 368.467592205
640.058520245 738.082041274 368.467422672
639.668817111 738.485700346 368.46742346
639.207726199 737.440122187 368.467634434
638.410335676 737.882343509 368.467688961
638.051930257 738.921374834 368.467597599
637.64527924 738.980976371 368.467648286
637.237355128 739.014732921 368.467702722
636.823018806 738.918315731 368.467776037
636.39811968 738.607463954 368.467880452
636.010295147 739.04926034 368.467875709
635.602301809 739.081611534 368.467930348
635.193266324 739.092806169 368.467988056
634.785504599 739.129859333 368.468042014
634.376746981 739.14669494 368.468098904
633.968220834 739.168229602 368.468155112
633.560551571 739.207159831 368.468208797
633.15142341 739.216473077 368.468266778
632.725879124 738.892523949 368.468373093
632.303161549 738.625959651 368.468471085
631.888202867 738.516907981 368.468546233
631.421391752 737.355204473 368.468774049
630.991476345 736.942517594 368.468893234
651.421169354 735.936092159 367.903572622
651.059116941 736.901086175 367.903491998
650.686892719 737.659583161 367.903441322
650.308695891 738.296830765 367.903408232
649.903224465 738.380379083 367.903455446
649.494050138 738.388755112 367.903513563
649.085547388 738.410764775 367.903569703
648.583503556 736.533804848 367.903901254
646.933864256 736.304574712 367.904171826
646.559420755 737.018018288 367.904127685
646.130799251 736.631598837 367.90424306
645.342113368 737.2505323 367.904271958
644.969216278 737.995369439 367.904223264
644.560644075 738.015969141 367.904279608
644.130339231 737.595376348 367.904399939
641.217046131 736.657785596 367.904951241
640.822825516 736.969735669 367.904965329
640.390247832 736.503002129 367.905092353
638.754662902 736.559088553 367.905321544
638.440184965 738.48988799 367.905100847
638.053330067 738.951368848 367.905093249
637.645452557 738.98607145 367.905147547
637.236741147 739.00384512 367.905204301
636.827845798 739.017884677 367.905261596
636.413878691 738.928962874 367.905333824
636.011070528 739.06657787 367.905373197
635.602359247 739.084354171 367.905429951
635.193092333 739.090850596 367.90548834
634.785168277 739.124608274 367.905542776
634.376318026 739.139563337 367.905599938
633.968486635 739.175202216 367.905654101
633.559080532 739.178872985 367.9057129
633.151805133 739.225798979 367.905765426
632.723852127 738.852950648 367.905878832
632.30421483 738.648918811 367.905967755
631.894623599 738.648831314 367.906027099
631.486282917 738.674131105 367.906082762
631.05578795 738.249678635 367.906203653
630.582799373 736.962566985 367.906449657
651.829683362 735.915887635 367.34101622
651.482561494 737.183985385 367.340891636
651.099433362 737.721123012 367.340873065
650.709684841 738.123860691 367.340873987
650.311738403 738.360173149 367.340899045
649.903258806 738.38265283 367.340955117
649.494478133 738.399020393 367.341012074
649.084054497 738.382034321 367.341073869
648.614404049 737.162689748 367.341310046
647.34598862 736.35766372 367.341604795
647.028973052 738.236946906 367.341391569
646.634170765 738.537088514 367.341407371
646.177788583 737.587101873 367.341604481
645.292132391 736.23744931 367.341918888
644.930172616 737.204323963 367.341837991
644.528290583 737.360740244 367.341874637
644.073359774 736.440217807 367.342067475
641.635146265 736.832188205 367.342366615
641.317409109 738.696822513 367.342155514
640.913857199 738.819338756 367.342197077
640.50477551 738.829595422 367.342254921
640.082200541 738.565926151 367.342352493
639.649368058 738.094019965 367.342480266
639.164403014 736.563775077 367.342761533
638.754581419 736.559010985 367.342821556
638.444872834 738.586632607 367.342586816
638.053688604 738.960224074 367.342591964
637.645000485 738.978470581 367.34264865
637.237192336 739.014581265 367.342702744
636.828272534 739.028124393 367.342760111
636.420279414 739.060480006 367.34281475
636.010595309 739.058507077 367.342874368
635.601722062 739.072995318 367.342931598
635.193682368 739.104405441 367.342986374
634.784438347 739.111366621 367.343044696
634.377255423 739.160169962 367.343096949
633.967941954 739.165721274 367.343155476
633.560481074 739.208881857 367.343208548
633.151237243 739.21584689 367.343266869
632.742572397 739.234565861 367.343323486
632.326592146 739.104775398 367.343401641
631.896787143 738.694329832 367.343520501
631.486131912 738.672642167 367.343582978
631.077420618 738.690418186 367.343639731
630.611403937 737.544842412 367.343865208
651.887539072 737.091988094 366.778345647
651.507530438 737.692454397 366.778317892
651.098356116 737.70083052 366.778376008
650.707288441 738.076788157 366.778380814
650.311842253 738.363857985 366.778398511
649.903107783 738.381163516 366.778455333
649.494720833 738.405524022 366.778511131
649.081866391 738.339190354 366.778580083
648.646435916 737.814542553 366.778715506
648.15578412 736.168851383 366.779013516
647.399049021 737.43641502 366.778948341
647.043240509 738.528165934 366.778849333
646.634274448 738.540769966 366.778906837
646.225864212 738.564657728 366.778962704
645.778887712 737.805615064 366.779132121
645.389022559 738.205984994 366.779133386
644.980241737 738.222349549 366.779190344
644.504910026 736.887670124 366.779443248
644.076982166 736.515332269 366.77955658
641.701845346 738.187817191 366.779670005
641.32209327 738.793491849 366.779641494
640.913127223 738.806096163 366.779698997
640.50476343 738.830926782 366.779754727
640.095982609 738.847291337 366.779811686
639.687896605 738.87776133 366.779866598
639.212084298 737.533325382 366.780120917
638.426896111 738.22326527 366.780139516
638.053583923 738.959675548 366.780092044
637.645289458 738.98591359 366.78014757
637.236624376 739.004627766 366.780204187
636.828955202 739.043559781 366.780257873
636.419549173 739.047232054 366.780316671
636.011092877 739.070184762 366.780372674
635.601640603 739.072918221 366.780431609
635.192998725 739.092103449 366.780488158
634.785538128 739.135269766 366.780541229
634.376131839 739.138936775 366.780600029
633.968393411 739.176462872 366.780653918
633.559149251 739.18342123 366.78071224
633.15191999 739.231283876 366.78076463
632.742166714 739.227906721 366.780824452
632.333849116 739.25367512 366.780880046
631.912774354 739.020461447 366.780973201
631.486698869 738.685728497 366.78108108
631.077686503 738.697392492 366.78113872
630.626028578 737.843312604 366.781321921
651.912111315 737.592403706 366.215773071
651.507217491 737.687677869 366.215818585
651.098645042 737.708272588 366.215874929
650.694191761 737.812490159 366.215919146
650.311969315 738.368014061 366.215897908
649.902771674 738.375916781 366.215956094
649.494129851 738.395103138 366.216012642
649.085766035 738.419933287 366.216068373
648.658254752 738.056052338 366.216180479
648.155702638 736.168773815 366.216513527
647.432384299 738.114728252 366.216349964
647.043367395 738.532318438 366.216348731
646.634355182 738.543985535 366.21640637
646.225273216 738.554236562 366.216464215
645.816654666 738.57389538 366.216520696
645.407920353 738.591204108 366.216577517
644.999185948 738.608510955 366.216634338
644.590636721 738.629577103 366.216690614
644.182434918 738.657696252 366.216745868
643.744925681 738.090847689 366.216887411
643.250194948 736.362350369 366.217197431
642.029200088 736.520005288 366.21735256
641.730630379 738.773756309 366.217085024
641.321919076 738.791532141 366.217141778
640.913601518 738.817301386 366.217197372
640.504728077 738.83178568 366.217254603
640.096526325 738.859905863 366.217309856
639.687375058 738.86875003 366.217367905
639.265310755 738.615447763 366.217463974
638.786439161 737.208905492 366.2177273
638.437322302 738.436503083 366.217608589
638.05361832 738.961950423 366.217591714
637.644629102 738.974084342 366.217649286
637.237075621 739.015365039 366.21770263
636.828063177 739.027027436 366.21776027
636.420949812 739.077242899 366.217812319
636.010710166 739.063991974 366.217873572
635.601489654 739.071430411 366.217931825
635.193403641 739.101900216 366.217986737
634.783858544 739.102749277 366.218045946
634.376860961 739.155315208 366.218097654
633.967408576 739.15804641 366.218156589
633.559971002 739.201680113 366.218209592
633.150727055 739.208642796 366.218267914
632.742895859 739.244285624 366.218322076
632.33374455 739.253128945 366.218380125
631.924986891 739.269963705 366.218437015
631.493560375 738.826599937 366.218560649
631.077280783 738.690732601 366.218639685
630.604296591 737.403709963 366.218885677
651.893906322 737.22440228 365.653326443
651.507298026 737.690889396 365.653318119
651.09867943 737.710547275 365.653374599
650.69989899 737.929928733 365.653402113
650.311771922 738.365583394 365.653398261
649.903222867 738.38665302 365.653454536
649.49421046 738.398316169 365.653512176
649.085846621 738.423145848 365.653567907
648.676649136 738.431051764 365.653626092
648.167565723 736.41118189 365.65397837
647.778214518 736.821985451 365.653978122
647.450330963 738.480638566 365.653796895
647.043007879 738.526596515 365.653849561
646.634111494 738.54061502 365.653906859
646.225307598 738.556511154 365.653963885
645.816596318 738.574287456 365.654020639
645.407862024 738.591596559 365.65407746
644.99926652 738.611723234 365.654133872
644.590833205 738.635142482 365.654189807
644.182445963 738.659497066 365.654245607
643.77368847 738.676335211 365.654302496
643.278748419 736.943588551 365.654613132
641.72594542 738.680223941 365.65459859
641.321791372 738.790516229 365.654641925
640.913288455 738.812522508 365.654698065
640.50513292 738.841580942 365.654753182
640.096051092 738.851834788 365.654811027
639.687571462 738.874313811 365.654867098
639.278559156 738.885979028 365.654924738
638.816024441 737.811090341 365.655139963
638.45824421 738.862813555 365.655046761
638.053189456 738.9548207 365.655092748
637.645103545 738.985292573 365.65514766
637.235859561 738.992254505 365.655205982
636.828977612 739.047167896 365.655257349
636.419687244 739.053188192 365.655315808
636.011485561 739.081309786 365.655371061
635.601685915 739.076991278 365.655431018
635.192951528 739.094298501 365.65548784
634.78474966 739.122416334 365.655543093
634.376038227 739.140189533 365.655599847
633.968322743 739.178181419 365.655653669
633.559078916 739.185146546 365.65571199
633.151340159 739.222665968 365.65576588
632.742142698 739.230572354 365.655824065
632.333130355 739.242236819 365.655881705
631.925414835 739.280227952 365.655935526
631.497647721 738.9111534 365.656048386
631.055695695 738.254112137 365.65620301
651.836579576 736.062193464 365.090995001
651.492403054 737.390084418 365.090861745
651.098574753 737.709998844 365.090874679
650.711141245 738.159733381 365.090868784
650.311435669 738.360333745 365.090899022
649.903164441 738.387043497 365.09095448
649.494522803 738.406233614 365.091011028
649.085255616 738.412724493 365.091069418
648.676961364 738.43896686 365.091124944
648.186700869 736.801219467 365.091421802
647.828261715 737.839565952 365.09133054
647.451730575 738.510628547 365.091292545
647.042880129 738.525579663 365.091349708
646.633821629 738.536307099 365.091407484
646.225411619 738.560199468 365.09146335
645.816237102 738.568571642 365.091521468
645.407803583 738.591986754 365.091577403
644.999486021 738.617755906 365.091632997
644.590427397 738.628480804 365.091690773
644.182271921 738.65754046 365.09174589
643.773421712 738.67249637 365.091803053
643.350292146 738.397568277 365.091902258
642.846228117 736.479596521 365.092239758
641.654041738 737.222089977 365.092310067
641.32203404 738.7970192 365.092140982
640.913253292 738.813385259 365.09219794
640.504495734 738.830222088 365.09225483
640.096085419 738.854108252 365.092310697
639.687675126 738.877994886 365.092366564
639.231130751 737.924715578 365.092564152
638.796259007 737.411410523 365.09269793
638.461402407 738.928504433 365.092537233
638.053779427 738.968374229 365.092590782
637.64458178 738.976276855 365.092648968
637.236449652 739.005810478 365.092704016
636.827923328 739.027341568 365.092760225
636.420370042 739.068626213 365.092813569
636.010385185 739.060547745 365.092874072
635.601928745 739.08349754 365.092930075
635.193310135 739.103155136 365.092986555
634.783927221 739.107296676 365.093045286
634.376675118 739.154695602 365.093097743
633.967222376 739.157419566 365.09315668
633.560410093 739.213747241 365.093207842
633.150865014 739.214596679 365.09326705
632.74196862 739.228614996 365.093324349
632.333211094 739.245452483 365.093381238
631.924962823 739.272628305 365.093436629
631.491222315 738.782288363 365.093567075
631.077071482 738.689636771 365.093639844
630.60387899 737.398385473 365.093886449
651.456355684 736.659866424 364.528467651
651.099534808 737.731065425 364.528371623
650.720760198 738.356583528 364.528340234
650.311910081 738.371541318 364.528397397
649.902388243 738.37286256 364.528456537
649.494325461 738.403803981 364.528511381
649.085405733 738.417348614 364.528568748
648.676185092 738.424784418 364.528627001
648.172050277 736.505375642 364.528964709
647.829983133 737.876088905 364.528825243
647.451255295 738.502556532 364.528793716
647.042891632 738.527389784 364.528849446
646.63355501 738.532471078 364.52890804
646.225005751 738.553536567 364.528964317
645.816433576 738.574136834 364.52902066
645.407652736 738.590501012 364.529077619
644.998895173 738.607337747 364.529134508
644.590832174 738.63827475 364.529189353
644.181889252 738.651348518 364.529246788
643.773224485 738.670069087 364.529303405
643.364582676 738.689255725 364.529359954
642.865315045 736.868655229 364.529683332
641.250156407 737.339414072 364.529852382
640.913357045 738.817068121 364.529697406
640.504530131 738.832496963 364.5297545
640.095911424 738.852152586 364.529810981
639.649231871 738.09913822 364.529979524
638.455625708 738.812808759 364.530054013
638.053095922 738.956075057 364.530092566
637.64535711 738.993593351 364.530146456
637.236483618 739.00807661 364.530203687
636.82890711 739.048889827 364.5302571
636.419663172 739.055852698 364.530315421
636.010813032 739.070810018 364.530372583
635.601870318 739.083888016 364.530430018
635.19264957 739.091321658 364.530488272
634.784957229 739.129783373 364.530542025
634.375250162 739.12734428 364.53060171
633.968160061 739.178032019 364.53065369
633.559078066 739.18828248 364.530711535
633.151269954 739.224393915 364.530765629
632.742234496 739.235589114 364.530823337
632.332134978 739.225182923 364.530884178
631.905595622 738.881032976 364.530993423
631.485631813 738.67037266 364.531083307
631.077638494 738.70272423 364.531137946
630.621624959 737.760221468 364.531333971
651.861495108 736.571154749 363.965921185
651.506984196 737.689248144 363.965818357
651.104336337 737.830117457 363.965857258
650.72040076 738.350863203 363.965841064
650.311689581 738.368641573 363.965897817
649.902538365 738.377486774 363.965955866
649.493803867 738.394791741 363.966012688
649.085602383 738.422917377 363.96606794
648.676404593 738.430817089 363.966126126
648.248591771 738.06081462 363.96623912
647.842380774 738.129348961 363.966288512
647.450965296 738.498245886 363.966294341
647.042462509 738.520254797 363.966350481
646.633867228 738.540385985 363.966406892
646.224947472 738.553930053 363.96646426
645.816050981 738.567946396 363.966521558
645.402710668 738.491749113 363.966591941
644.987075658 738.368967365 363.96666908
644.590449894 738.632090705 363.96669025
644.182085907 738.656917376 363.966745981
643.773212401 738.671400353 363.966803212
643.350383892 738.402584003 363.96690153
642.846065139 736.479441104 363.96723978
640.827099774 737.067543168 363.967451144
640.461249618 737.955439525 363.967381702
640.043162566 737.782879099 363.96746606
639.572509612 736.543182716 363.967705188
638.786341402 737.213227252 363.967726673
638.461471089 738.933051927 363.967536574
638.053663087 738.969165618 363.967590668
637.64428003 738.973304243 363.967649399
637.237073945 739.021637378 363.96770172
636.827459455 739.0210777 363.967761133
636.419929284 739.062831611 363.967814409
636.010407525 739.06415445 363.967873549
635.601788808 739.083809885 363.96793003
635.193263008 739.105351597 363.967986237
634.784250378 739.117010234 363.968043877
634.376534829 739.155000803 363.968097699
633.967638166 739.169013668 363.968154998
633.560061704 739.209827824 363.96820841
633.150702161 739.214443801 363.968267073
632.741875016 739.229867942 363.968324167
632.323973684 739.061077795 363.968407979
631.894446726 738.656276776 363.96852602
631.486106104 738.681577789 363.968581682
631.076839041 738.688071206 363.968640071
630.625574937 737.841986235 363.968822113
651.900756282 737.369769107 363.40330536
651.506485759 737.680706016 363.403319596
651.098145082 737.706005901 363.403375258
650.719232135 738.328715638 363.403344276
650.311723737 738.370911559 363.403397488
649.902734779 738.383050743 363.403455059
649.493815051 738.396595376 363.403512426
649.085265912 738.41766331 363.403568702
648.676624229 738.436852486 363.40362525
648.267634983 738.448985842 363.403682822
647.858508017 738.458323335 363.4037408
647.451208145 738.504752524 363.403793397
647.042334523 738.519233151 363.403850629
646.633600349 738.536544698 363.40390745
646.224842838 738.553382467 363.403964339
645.816177816 738.572097866 363.404020956
645.390609562 738.247662174 363.404127342
644.96962837 738.016348036 363.404220221
644.588979313 738.603813168 363.404194351
644.181656988 738.649786525 363.404247015
643.773269941 738.674145058 363.404302814
643.30493758 737.481558868 363.404535109
638.835512885 738.213029966 363.405081669
638.462153739 738.948486939 363.405034335
638.053025568 738.957799996 363.405092316
637.644939528 738.988269237 363.405147228
637.235880797 738.998991973 363.405205005
636.828327594 739.040278311 363.405258348
636.418643549 739.038306603 363.405317966
636.010881913 739.075361553 363.405371923
635.602008421 739.089844812 363.405429154
635.19297293 739.101039353 363.405486862
634.78511867 739.136213948 363.405541092
634.375040999 739.126251271 363.405601869
633.968043351 739.178815887 363.405653577
633.559146475 739.192824427 363.405710877
633.150157521 739.204963705 363.405768447
632.742048379 739.234963961 363.405823428
632.31703825 738.92185873 363.40592817
631.894596922 738.660902494 363.406025349
631.485792967 738.676797406 363.406082375
631.077382794 738.700686484 363.406138242
630.596502108 737.253357795 363.406407483
651.886644501 737.084863645 362.840846681
651.506195974 737.676399694 362.84082022
651.097878375 737.702168093 362.840875815
650.698218545 737.903697118 362.840905918
650.311642329 738.370835496 362.840897499
649.90253745 738.380621392 362.840955411
649.493779939 738.397459161 362.841012301
649.085300031 738.419932544 362.841068373
648.676450002 738.43489212 362.841125535
648.267715648 738.452200001 362.841182356
647.859096894 738.471854684 362.841238837
647.450339415 738.488693111 362.841295726
647.042021677 738.514458691 362.841351321
646.633611496 738.53834758 362.841407188
646.224668695 738.551423793 362.841464623
645.815911104 738.568259964 362.841521513
645.407361947 738.589327522 362.841577789
644.994229369 738.51734743 362.84164756
644.590194065 738.630050327 362.841690546
644.181899822 738.656292881 362.841746071
643.773165213 738.673595592 362.841802893
643.353994139 738.479028503 362.841890443
642.845948471 736.480225819 362.842239667
639.17338163 736.758661939 362.842733268
638.870111899 738.916998214 362.84247957
638.461771241 738.942298475 362.842535233
638.052944146 738.957723651 362.842592327
637.644302245 738.976908409 362.842648876
637.236841537 739.02007247 362.842701947
636.827250148 739.019981776 362.842761292
636.419002169 739.047163521 362.842816681
636.0100824 739.060707307 362.842874049
635.601810958 739.087412735 362.842929507
635.193979762 739.123055563 362.842983669
634.783879041 739.112624935 362.843044513
634.376256445 739.152502534 362.843098061
633.967406059 739.167454871 362.843155224
633.559667168 739.204971566 362.843209115
633.150701418 739.217581897 362.843266617
632.729510806 738.982016345 362.843360114
632.302717447 738.632709914 362.843470106
631.893751276 738.645311689 362.84352761
631.486221091 738.687065319 362.843580886
631.055499538 738.258012948 362.843702444
651.828926889 735.914719888 362.27851639
651.484840268 737.244435921 362.278382869
651.097912665 737.704440806 362.278375485
650.690682163 737.752278264 362.278427878
650.310195188 738.343033806 362.278401531
649.902154934 738.374432552 362.278456309
649.493837497 738.400204242 362.278511903
649.08540395 738.42361879 362.278567838
648.676391608 738.435283255 362.278625478
648.267958357 738.458703819 362.278681413
647.842066116 738.127690889 362.278788752
647.442015966 738.321296069 362.278820005
647.042009736 738.515792871 362.278851128
646.633460464 738.536858078 362.278907404
646.224587305 738.551348106 362.278964634
645.816014847 738.571942637 362.279020979
645.407396145 738.591598354 362.27907746
644.998870303 738.613139221 362.279133667
644.590274808 738.633266084 362.279190079
644.181401321 738.647749437 362.27924731
643.773176342 738.675398098 362.279302632
643.364094402 738.685649689 362.279360477
642.88536918 737.282078883 362.279623372
639.592638433 736.956546003 362.280145237
639.233314696 737.976934628 362.280056579
638.870238943 738.921153914 362.279978968
638.461388724 738.936109635 362.28003613
638.052260702 738.945425701 362.280094111
637.645262976 738.997988718 362.280145819
637.23553264 738.995077256 362.280205573
636.827608949 739.02884236 362.280260007
636.418110116 739.030630612 362.280319079
636.010278804 739.066271089 362.280373242
635.601359216 739.079818541 362.280430608
635.193203536 739.10887406 362.280485726
634.784816475 739.133232312 362.280541525
634.376081954 739.150536809 362.280598347
633.967694963 739.174896469 362.280654145
633.559608876 739.20536477 362.280709058
633.142888413 739.06054734 362.280789393
632.711416606 738.616264126 362.28091316
632.302103206 738.621816848 362.280971686
631.894364537 738.659338057 362.281025576
631.485282797 738.669593689 362.28108342
631.026723355 737.675406682 362.281286941
651.452661406 736.592752159 361.715977384
651.097391233 737.695431856 361.715876791
650.709357271 738.132976653 361.715872665
650.311178502 738.364572568 361.715898407
649.90272202 738.387521515 361.71595441
649.49338537 738.392602245 361.716013005
649.085415366 738.425427125 361.716067576
648.676356505 738.436147229 361.716125353
648.267645215 738.453923342 361.716182106
647.835616932 737.998343139 361.716307512
647.440429697 738.290669944 361.716324446
647.041743089 738.511956284 361.716351684
646.633448625 738.538194326 361.71640721
646.224505768 738.551269411 361.716464645
645.816257886 738.57845313 361.716520034
645.407152757 738.588233949 361.716577947
644.987490056 738.383686397 361.716666945
644.589961763 738.628487582 361.716690772
644.181250427 738.646262755 361.716747526
643.772956014 738.672501832 361.716803052
643.36442993 738.69403781 361.71685926
642.890013127 737.37793186 361.71710947
640.023846746 737.397056641 361.717522017
639.6873947 738.881761528 361.717366018
639.278961296 738.905178991 361.717421953
638.869948954 738.916843455 361.717479593
638.461469292 738.939321821 361.717535664
638.052688461 738.955686187 361.717592622
637.643977162 738.973462113 361.717649376
637.236122777 739.008634169 361.717703606
636.826624235 739.010428343 361.717762678
636.418769729 739.045597955 361.717816908
636.009757359 739.057261857 361.717874548
635.601787095 739.090081471 361.71792912
635.193423274 739.114911526 361.71798485
634.783669896 739.111532302 361.718044672
634.376301835 739.156577189 361.718097471
633.967497611 739.172466648 361.718154498
633.559295951 739.200588711 361.71820975
633.150677226 739.220243958 361.718266231
632.712329629 738.636375919 361.718410243
632.302346013 738.62832264 361.718470742
631.894074576 738.655028162 361.718526201
631.485710709 738.679857277 361.718581931
630.997675138 737.087277889 361.718872239
651.502249959 737.601021761 361.153331152
651.098813742 737.725886685 361.153372375
650.719368337 738.337787035 361.153342961
650.310888475 738.360261357 361.153399033
649.902640589 738.387444983 361.153454422
649.493280731 738.392054566 361.153513085
649.084685292 738.412182557 361.153569497
648.676113075 738.432781977 361.153625841
648.266961803 738.44162605 361.15368389
647.858760074 738.469746704 361.153739143
647.45009502 738.488461443 361.15379576
647.041337416 738.505297332 361.15385265
646.632973697 738.530129456 361.15390838
646.224146288 738.545548239 361.153965475
645.816013887 738.575076315 361.154020524
645.405821365 738.562782068 361.154081639
644.972936052 738.089803386 361.154209568
644.588931295 738.609144717 361.154193578
644.181608951 738.655117699 361.154246242
643.772897661 738.672893812 361.154302995
643.364163288 738.690201318 361.154359817
642.876981625 737.114957039 361.15464761
640.389293181 736.502540966 361.155092419
640.086328345 738.667066881 361.154837824
639.687336426 738.882155108 361.154865961
639.278324023 738.893818351 361.154923601
638.870006424 738.919586751 361.154979195
638.461225672 738.935952715 361.155036153
638.053023933 738.96407318 361.155091406
637.644590678 738.98749365 361.155147341
637.235091831 738.98928162 361.155206413
636.827029054 739.020223136 361.155261257
636.418225024 739.036116543 361.155318284
636.010046447 739.064707216 361.155373469
635.601450985 739.084834736 361.155429881
635.192183761 739.091324864 361.155488271
634.784838801 739.136838734 361.155541002
634.374992804 739.131579249 361.155601096
633.967647933 739.177094904 361.155653826
633.558658715 739.189228824 361.155711398
633.150456823 739.217346187 361.155766652
632.694354198 738.273034816 361.155962939
632.298261997 738.546989979 361.155982538
631.893993251 738.654953791 361.156026211
631.463637116 738.233319739 361.156146694
651.832247225 735.986855528 360.591005928
651.505731135 737.673269409 360.590820674
651.097436712 737.699508297 360.5908762
650.717829178 738.308117295 360.590847264
650.310714411 738.358304281 360.590899316
649.901887349 738.373730115 360.590956411
649.493454112 738.397150961 360.591012345
649.084464797 738.409282906 360.591069917
648.675915803 738.430353754 360.591126193
648.267737119 738.458942264 360.591181378
647.858910025 738.47436744 360.591238473
647.450106273 738.490266488 360.591295498
647.041302197 738.506158956 360.591352525
646.63284572 738.529107998 360.591408528
646.224203925 738.548294918 360.591465077
645.815515621 738.566537666 360.591521763
645.406989802 738.588079003 360.59157797
644.998648986 738.613376068 360.591633633
644.58979873 738.628331038 360.591690795
644.181319174 738.650811565 360.591746866
643.772399312 738.664353471 360.591804234
643.364151204 738.691532584 360.591859623
642.926827303 738.128446517 360.592000621
642.441700103 736.594909714 360.592282365
640.807344138 736.675945251 360.592507939
640.484656103 738.440072167 360.592311414
640.095595704 738.856779347 360.59231031
639.687023353 738.877376041 360.592366654
639.278404725 738.897033262 360.592423134
638.869670199 738.914337665 360.592479956
638.461653616 738.946216962 360.592534664
638.052733949 738.959762816 360.592592031
637.643721833 738.971431887 360.59264967
637.23575162 739.004252537 360.592704242
636.826461076 739.010269261 360.592762701
636.418560562 739.044504853 360.592817067
636.009617454 739.057574861 360.592874503
635.601022057 739.077703698 360.592930915
635.193237148 739.114286186 360.592984941
634.783506812 739.111374724 360.593044695
634.375698764 739.147487475 360.593098789
633.967450447 739.174662357 360.593154179
633.558623506 739.190090636 360.593211273
633.139055453 738.98746453 360.593299992
632.223229228 737.025332674 360.593703228
631.82535122 737.263034323 360.593728085
631.398907952 736.920835055 360.593837047
651.470017915 736.949834951 360.028425596
651.097239383 737.697078946 360.028376553
650.695959248 737.865714303 360.028411426
650.306675317 738.277883564 360.02841098
649.901782719 738.373182623 360.02845649
649.493789377 738.405533723 360.02851113
649.084915996 738.420019239 360.02856836
648.675949986 738.432624304 360.028625864
648.267539902 738.456515169 360.02868173
647.858365278 738.464885182 360.028739848
647.450070897 738.491124916 360.028795374
647.041127994 738.50419906 360.028852809
646.632648299 738.526676767 360.028908881
646.22407617 738.547277973 360.028965224
645.815387973 738.565522882 360.02902191
645.406746025 738.584706701 360.029078459
644.998359029 738.609066268 360.029134258
644.589416139 738.622140694 360.029191693
644.181029129 738.646499978 360.029247492
643.772480083 738.667569793 360.029303767
643.363699197 738.683933031 360.029360726
642.955219567 738.706412054 360.029416797
642.546647211 738.727008654 360.029473141
642.133448189 738.653679682 360.029543108
641.65319265 737.219042063 360.029810509
641.215858146 736.655740726 360.029951537
640.898240611 738.522803435 360.029740084
640.50383184 738.830933757 360.029754726
640.095653253 738.859524241 360.029809911
639.686918765 738.876829396 360.029866733
639.278068509 738.891784365 360.029923896
638.870329946 738.929307736 360.029977785
638.460761581 738.929684428 360.030037062
638.052722114 738.961099159 360.030091837
637.644033921 738.979344162 360.030148523
637.235345594 738.99758644 360.030205209
636.827120884 739.025240553 360.030260529
636.418015718 739.035020621 360.030318443
636.010022477 739.067373789 360.030373082
635.601357442 739.086088905 360.030429699
635.192599805 739.102924136 360.030486589
634.784722351 739.137627867 360.030540887
634.374667925 739.128137088 360.030601595
633.96639652 739.154843268 360.030657054
633.558264091 739.18437078 360.030712103
633.147030449 739.150940837 360.030776283
632.624612939 736.860376615 360.031167821
651.082668561 737.402854507 359.465919225
650.688354043 737.712898265 359.46593359
650.282234721 737.783293687 359.465982712
649.893204439 738.200612277 359.465981518
649.492920628 738.389473935 359.466013459
649.084348347 738.410072039 359.466069803
648.675683172 738.428784335 359.466126421
648.267018313 738.447503023 359.466183037
647.858399707 738.467160714 359.466239518
647.449850453 738.488226298 359.466295794
647.041648659 738.516345636 359.466351048
646.63261309 738.527538578 359.466408756
646.224226163 738.551899555 359.466464554
645.815653863 738.572497283 359.466520898
645.40675719 738.586509959 359.466578198
644.997814556 738.599589556 359.466635632
644.589427369 738.623945268 359.466691431
644.180854907 738.644539706 359.466747776
643.772560623 738.670781414 359.466803302
643.36373357 738.686207435 359.466860396
642.955300065 738.709622829 359.466916331
642.546982508 738.735392075 359.466971925
642.137970152 738.747056258 359.467029565
641.729745205 738.774705577 359.467084887
641.295357206 738.271221 359.46721724
640.912322713 738.81025959 359.467198393
640.504005115 738.83602799 359.467253988
640.095108539 738.85004264 359.467311287
639.686790978 738.875811792 359.467366881
639.278010216 738.892177569 359.467423839
638.869622919 738.916531024 359.467479638
638.461236057 738.940893318 359.467535436
638.052154248 738.95114754 359.467593281
637.643813505 738.976446108 359.467648943
637.235773719 739.007854352 359.467703719
636.82650649 739.014344385 359.46776211
636.419277455 739.062211638 359.467814499
636.009662803 739.06164867 359.467873912
635.601298997 739.086479006 359.467929642
635.192750117 739.107552204 359.467985918
634.783714368 739.118741481 359.468043626
634.375003259 739.136521261 359.468100379
633.966384607 739.156178012 359.46815686
633.557835348 739.177243502 359.468213136
633.150212419 739.217114332 359.468266685
632.697212492 738.335790582 359.468453837
632.251778385 737.60805988 359.468618714
651.050657658 736.754580482 358.903513246
650.68822626 737.711880756 358.903433737
650.279839241 737.736239852 358.903489536
649.889234399 738.121593435 358.903492979
649.49246859 738.381873724 358.903514561
649.084243698 738.409524171 358.903569882
648.675648259 738.429652162 358.903626295
648.266774804 738.444136174 358.903683526
647.858549885 738.471786057 358.903738847
647.449745805 738.48767843 358.903795874
647.041312614 738.511100217 358.903851808
646.632855989 738.53404625 358.903907812
646.224237291 738.553702061 358.903964293
645.815873373 738.578530142 358.904020023
645.406884188 738.590664719 358.904077595
644.998126741 738.607503804 358.904134484
644.589716481 738.631391097 358.904190351
644.18100521 738.649167586 358.904247105
643.772270842 738.666475186 358.904303926
643.36388373 738.690832402 358.904359725
642.955010275 738.705316413 358.904416956
642.54653058 738.72779412 358.904473027
642.137888781 738.746980947 358.904529576
641.729617334 738.773686281 358.904585035
641.309905578 738.568142863 358.904674177
640.912403332 738.813472809 358.904697927
640.503529886 738.827957008 358.904755158
640.095490294 738.8593692 358.904809934
639.686639908 738.874321538 358.904867097
639.278206625 738.897741444 358.904923032
638.86928681 738.91128429 358.904980399
638.460691366 738.931412187 358.905036811
638.052767528 738.965174283 358.905091246
637.643430818 738.970253791 358.905149841
637.235275403 738.999314668 358.905204958
636.827536822 739.036837663 358.905258847
636.417783268 739.033454867 358.90531867
636.010345847 739.077091672 358.905371672
635.600962646 739.081227384 358.905430404
635.192043215 739.094778032 358.90548777
634.783401517 739.113966927 358.905544319
634.374458711 739.127043045 358.905601754
633.966511595 739.160332584 358.905656257
633.557892828 739.179986985 358.905712738
633.149528859 739.204814032 358.905768469
632.736049761 739.125799271 358.90583926
632.301406066 738.617123819 358.905972367
631.857363998 737.91765281 358.906133144
650.63109401 736.553620374 358.341101723
650.265267043 737.441987488 358.341032212
649.888017515 738.098466163 358.340996333
649.492618717 738.386498033 358.34101389
649.083976972 738.405685987 358.341070439
648.675821534 738.434746395 358.341125556
648.2667859 738.445938022 358.341183264
647.858838997 738.479231886 358.341237767
647.449780211 738.489953493 358.341295544
647.041045699 738.507258178 358.341352365
646.632496681 738.528328557 358.341408641
646.223623184 738.542811722 358.341465872
645.815490889 738.57234196 358.341520921
645.407011125 738.594818257 358.341576993
644.998299928 738.612596251 358.341633746
644.589774072 738.634136836 358.341689953
644.181108958 738.652850354 358.341746571
643.77242077 738.671095451 358.341803256
643.363848419 738.691692145 358.3418596
642.955067704 738.708058862 358.341916558
642.546425872 738.72724503 358.341973107
642.137876789 738.748314093 358.342029383
641.727985001 738.742125008 358.342089612
641.291628321 738.198674408 358.342227762
640.906534749 738.695911811 358.342214978
640.503518001 738.829292317 358.342254965
640.094922441 738.849417864 358.342311377
639.686697476 738.877066807 358.342366699
639.277800845 738.891080329 358.342423998
638.869390743 738.914970818 358.342479864
638.461235179 738.944028688 358.342534982
638.052245994 738.956163265 358.342592553
637.644507381 738.993685602 358.342646443
637.235309795 739.001589449 358.342704628
636.82682991 739.024063302 358.3427607
636.418303943 739.045601631 358.342816908
636.009036848 739.05209439 358.342875298
635.601066681 739.084915979 358.342929869
635.192123912 739.097992849 358.342987304
634.783319984 739.113888325 358.34304433
634.375048705 739.140597044 358.343099788
633.966267897 739.15696188 358.343156746
633.557950289 739.182730092 358.343212341
633.149354808 739.202857237 358.343268753
632.735597745 739.11819953 358.343340363
632.301463485 738.61986608 358.343471969
631.892891222 738.640464559 358.343528313
631.409323384 737.138584228 358.343805466
650.222278113 736.570849466 357.778658556
649.896364842 738.269501129 357.778471527
649.492606771 738.387832119 357.778513697
649.084034332 738.408427026 357.778570042
648.675392629 738.427615827 357.77862659
648.266681187 738.445388838 357.778683344
647.858039332 738.464574537 357.778739893
647.449559859 738.487056756 357.778795964
647.040732673 738.502480052 357.778853058
646.632577234 738.53154046 357.778908175
646.224328913 738.558715249 357.778963566
645.815779872 738.579785156 357.779019841
645.40690662 738.594273304 357.779077072
644.998056123 738.609223385 357.779134235
644.589182905 738.623712191 357.779191465
644.180517976 738.642429469 357.779248082
643.771899329 738.662086314 357.779304563
643.363836515 738.693027077 357.779359407
642.955194558 738.712210708 357.779415956
642.54703911 738.741270928 357.779471073
642.13807311 738.753876181 357.779528576
641.729431287 738.773062538 357.779585125
641.31231692 738.620248499 357.77966662
640.911129877 738.79077371 357.779701219
640.503691123 738.834383447 357.779754226
640.094840931 738.849339733 357.779811389
639.686106475 738.866645546 357.77986821
639.278275201 738.902286775 357.779922373
638.869054439 738.909720135 357.779980626
638.461084254 738.942541348 357.780035197
638.051933014 738.951386079 357.780093246
637.643545615 738.975737467 357.780149046
637.235575689 739.008563944 357.780203617
636.826586453 739.020697487 357.780261188
636.417851867 739.038000668 357.78031801
636.009511324 739.06330328 357.780373672
635.60038307 739.072614644 357.780431653
635.19211199 739.099327405 357.780487111
634.783423769 739.117571845 357.780543796
634.374851293 739.138166001 357.780600141
633.966441158 739.162055831 357.780656007
633.557868913 739.182654687 357.780712351
633.145037592 739.116790378 357.780781235
632.717315963 738.748639221 357.780893961
632.301428396 738.620730335 357.780971843
631.892670746 738.637565284 357.781028733
631.419913111 737.355141974 357.781274058
650.200872434 736.137871186 357.216221352
649.892628045 738.195217333 357.215982301
649.492340082 738.383994687 357.216014254
649.083767611 738.404588936 357.216070598
648.675426836 738.429886848 357.216126261
648.266785152 738.449076024 357.216182809
647.857726403 738.459798384 357.216240586
647.449941577 738.496382564 357.216294611
647.041206954 738.513684993 357.216351433
646.632773704 738.537105557 357.216407368
646.224201223 738.557699619 357.216463713
645.815072932 738.567010232 357.216521694
645.406246185 738.582442458 357.216578787
644.998021261 738.610092247 357.216634109
644.589008706 738.621752388 357.216691749
644.181038627 738.654575763 357.21674632
643.772304009 738.671878285 357.216803142
643.363731838 738.692478646 357.216859486
642.955275213 738.715424679 357.21691549
642.546957498 738.741190728 357.216971084
642.138246352 738.758969756 357.217027837
641.729349726 738.772983373 357.217085137
641.320800606 738.794051683 357.217141413
640.912274667 738.815590576 357.21719762
640.503609557 738.834304188 357.217254238
640.095268954 738.859605577 357.2173099
639.686349254 738.873150774 357.217367267
639.277707343 738.892335344 357.217423816
638.869644636 738.923278271 357.21747866
638.460701487 738.936347432 357.217536096
638.052360726 738.961645625 357.217591758
637.643719117 738.980836306 357.217648306
637.234776088 738.993907912 357.217705742
636.826690261 739.024381477 357.217760654
636.417608446 739.034635605 357.217818498
636.009012957 739.054762562 357.217874911
635.601042827 739.087584903 357.217929482
635.191775626 739.0940755 357.217987872
634.783666418 739.124074441 357.218042853
634.375024633 739.14326155 357.218099402
633.966336486 739.161507494 357.218156087
633.552741551 739.080141136 357.218227219
633.118561023 738.580868402 357.218358962
632.709641314 738.59441341 357.218416329
632.301022625 738.614069409 357.218472809
631.889072943 738.566103196 357.218539098
631.398395926 736.919900009 357.218837182
649.834010618 737.006806493 356.653654659
649.492304827 738.384855558 356.653514129
649.0838714 738.40827255 356.653570064
648.674928497 738.421346694 356.653627499
648.266657365 738.44805842 356.653682957
647.857807063 738.46301245 356.653740119
647.449744198 738.493952179 356.653794964
647.040986733 738.510790888 356.653851853
646.632043635 738.523861084 356.653909289
646.223587195 738.546810878 356.653965292
645.81506107 738.56834601 356.6540215
645.406627671 738.591763566 356.654077436
644.998125 738.613774826 356.654133575
644.589483265 738.632962969 356.654190123
644.180887775 738.653089927 356.654246536
643.772500534 738.677444511 356.654302335
643.363580797 738.690988955 356.654359702
642.955031598 738.712055668 356.654415978
642.546412988 738.731713265 356.654472459
642.1378406 738.752309206 356.654528803
641.729245258 738.772439172 356.654585215
641.320788619 738.795384923 356.654641219
640.912123713 738.814102672 356.654697836
640.503921891 738.842221445 356.654753089
