VERSION 0.7
FIELDS x y z
SIZE 4 4 4
TYPE F F F
COUNT 1 1 1
WIDTH 442
HEIGHT 1
VIEWPOINT 0.0 0.0 0.0 1.0 0.0 0.0 0.0
POINTS 442
DATA ascii
654.454774868 615.360936538 372.535757384
654.824360596 614.621279156 372.546278571
654.497823135 615.980085976 372.06046576
654.890111432 615.701311539 372.070920104
655.247155835 614.707053764 372.081478216
654.512086817 616.014882028 371.585258886
654.91287322 615.908626887 371.595688209
655.294368267 615.410739588 371.606174331
654.548217082 616.493589692 371.10998763
654.94692505 616.345140437 371.120423073
655.327406042 615.826666888 371.130912181
655.68775843 614.899564261 371.141460554
656.082076231 614.661990584 371.151908922
654.589521174 617.077330812 370.634701141
654.994063249 617.047319258 370.645119407
655.371896515 616.475094451 370.65561631
655.746728788 615.841946736 370.66612205
656.152026393 615.827273129 370.676538091
656.551800303 615.70046348 370.686970395
656.920656866 614.946003367 370.697493729
654.603477939 617.105896147 370.159495171
655.005280092 617.020261668 370.169921503
655.407981725 616.95288747 370.180345187
655.793087809 616.528307525 370.190820678
656.166122575 615.858668769 370.20133171
656.569343847 615.801843701 370.211753864
656.97485368 615.791478534 370.22216928
657.333084247 614.821300998 370.2327239
654.614765719 617.080278634 369.684297059
655.017914231 617.021976487 369.694719427
655.423046323 617.003942825 369.705135955
655.82669065 616.95570617 369.715556864
656.207335535 616.440559806 369.726045489
656.581481788 615.793485262 369.736553249
656.987889308 615.801343951 369.746966022
657.372051745 615.357607105 369.757444291
654.628250218 617.099256554 369.209092479
655.030477183 617.022246145 369.219517561
655.434877243 616.989351559 369.229936244
655.839206569 616.955021018 369.240355136
656.231565651 616.677683577 369.250809271
656.594847908 615.810059951 369.261349018
656.999602136 615.784355303 369.271766658
657.405868047 615.789339206 369.282179848
657.760149899 614.738999131 369.292746094
654.640529443 617.093766284 368.733891448
655.043654561 617.034989225 368.744313885
655.446684599 616.974281929 368.754736602
655.852501841 616.970157451 368.765151113
656.256807278 616.93534193 368.775570075
656.620090709 616.06774216 368.786109818
657.011976389 615.780794215 368.796565347
657.417415499 615.768993285 368.806980971
657.767685477 614.637208499 368.81755903
654.653517944 617.102674973 368.258688329
655.054871348 617.007930483 368.269115982
655.460570606 617.001410829 368.27953084
655.864025659 616.949331728 368.289952306
656.270598733 616.960551334 368.300364591
656.665838266 616.74168966 368.310810246
657.02645054 615.819862951 368.321357854
657.388179652 614.920709079 368.331902173
654.662821482 617.036775549 367.783496059
655.068757426 617.035060821 367.79391022
655.471149686 616.961406057 367.804334815
655.877179431 616.961595581 367.8147487
656.28247671 616.946915357 367.825164742
656.68770351 616.930804358 367.835580991
657.047073834 615.983764922 367.846132255
654.676093507 617.051440043 367.308292104
655.079808757 617.004643177 367.318712804
655.484657815 616.980863683 367.329130165
655.88884498 616.943647136 367.339549476
656.295748683 616.961578796 367.349960788
656.69934533 616.912374194 367.360381836
657.081721901 616.432382626 367.370865363
654.689577521 617.070408085 366.833087526
655.093056727 617.018819333 366.843508921
655.496323109 616.962910061 366.853930942
655.902494643 616.965978014 366.86434441
656.306870704 616.932596243 366.874763164
656.713679973 616.948610803 366.885174754
657.112226867 616.796891599 366.89561067
657.421798702 614.838897259 366.906308556
657.844321918 615.173919324 366.916673879
658.267688465 615.526061804 366.92703672
658.654302846 615.132101663 366.93750777
654.702069626 617.069239487 366.357885868
655.10644666 617.035877468 366.368304619
655.50898084 616.965103819 366.378728796
655.913853 616.941793292 366.38914609
656.320496917 616.954451058 366.399558167
656.724636964 616.916277976 366.409977615
657.130548749 616.914072803 366.420391848
657.521941155 616.61711094 366.43084883
657.885056307 615.74609494 366.441389068
658.290589968 615.736213507 366.451804414
658.69607637 615.72537266 366.462219898
659.058391311 614.838111654 366.472762493
654.715979386 617.096850588 365.882680036
655.116742319 616.990119 365.893109428
655.521378762 616.962023204 365.903527416
655.927550144 616.96508809 365.913940884
656.332398655 616.941297473 365.924358247
656.737861592 616.929980276 365.934773801
657.142261364 616.897079841 365.945192485
657.546096788 616.852722633 365.955612831
657.897359785 615.741097034 365.966187965
658.303649292 615.746559971 365.976601086
658.708143569 615.715578074 365.987019492
659.079386258 615.009558522 365.9975358
654.726416673 617.05396729 365.407484428
655.130155944 617.007658088 365.417905057
655.533327675 616.949827305 365.428327357
655.939995084 616.962961997 365.438739365
656.34548133 616.952117987 365.44915485
656.750093907 616.92353769 365.459572908
657.155674965 616.91461845 365.469988114
657.559933132 616.878843324 365.480407215
657.923760101 616.022277855 365.490945358
658.315054933 615.723335141 365.501402627
658.721250011 615.726881075 365.511816025
659.083610407 614.840542851 365.522358485
654.740089989 617.076778353 364.932279292
655.142317251 616.999773986 364.942704373
655.547945809 616.991819049 364.95311944
655.95232179 616.958435646 364.963538194
656.358233415 616.956227215 364.973952427
656.762420835 616.919015846 364.984371736
657.167576524 616.90146122 364.994788195
657.572401868 616.877200295 365.005205626
657.96924764 616.690946763 365.015646551
658.328893596 615.749502903 365.026197004
658.733198862 615.71468393 365.036615966
659.101725944 614.953535068 365.04714027
654.751141508 617.046364543 364.457081876
655.156793942 617.038894299 364.467496872
655.558406475 616.949410375 364.477923763
655.96604272 616.982213315 364.488332918
656.369403093 616.928212128 364.498754662
656.775550713 616.930794622 364.5091682
657.180446715 616.907968117 364.519585424
657.585649932 616.89137837 364.530001742
657.989860817 616.854643352 364.540420983
658.37107217 616.350996801 364.55090794
658.746399913 615.727907579 364.561412221
659.095441648 614.571188322 364.571993896
654.764932997 617.071574619 363.981876392
655.166994779 616.991210869 363.99230196
655.573189924 616.994758145 364.002715358
655.976290883 616.93549064 364.013137867
656.383619993 616.962058452 364.023547926
656.787358102 616.915725664 364.033968558
657.19355353 616.919278693 364.044381956
657.597575456 616.878707654 364.054801752
658.002471321 616.855878369 364.065218976
658.407343651 616.832571294 364.075636269
658.768382673 615.919407954 364.08618262
659.105336214 614.517287316 364.096799886
654.777684897 617.075680106 363.50667397
655.181187658 617.024569527 363.517095295
655.584335868 616.966261243 363.527517664
655.989751782 616.953989428 363.537933356
656.394364028 616.925402419 363.548351415
656.801787458 616.95388503 363.558761197
657.204840936 616.893653605 363.569183845
657.61169762 616.910630742 363.579595295
658.014821983 616.851838341 363.590017735
658.420308475 616.840999317 363.600433219
658.786612652 616.034723442 363.610964068
659.159802307 615.36822909 363.621474644
654.789752087 617.065885328 363.031473563
655.192994957 617.009498746 363.041895653
655.597914901 616.987158276 363.052312806
656.001322745 616.934120817 363.062734411
656.409218517 616.972192377 363.073142802
656.811775854 616.901888844 363.08356691
657.219010464 616.926538215 363.093977248
657.62248882 616.874932204 363.104398645
658.028188136 616.868413701 363.114813503
658.431761488 616.8187362 363.125234621
658.790201664 615.85281391 363.135788623
659.17817244 615.486389829 363.14625568
654.802598875 617.071917121 362.55627086
655.205557952 617.009769267 362.566693787
655.60941498 616.965850641 362.577114069
656.015445113 616.966048028 362.587527953
656.419915499 616.934581149 362.597946429
656.826842832 616.952992515 362.608357671
657.230226669 616.89946768 362.618779347
657.637130485 616.917401641 362.629190658
658.039522886 616.843749752 362.639615253
658.445198657 616.836753269 362.65003018
658.804795243 615.89430715 362.660580778
659.158800805 614.83835815 362.671147838
654.814051694 617.049650073 362.081072262
655.218971661 617.027310081 362.091489415
655.622143728 616.969486107 362.101911714
656.026897847 616.943779253 362.112329355
656.433541457 616.956430787 362.122741433
656.837468958 616.913942841 362.133161507
657.244018465 616.924683987 362.143573862
657.647284601 616.868769728 362.153995884
658.053338156 616.869442601 362.164409699
658.457053089 616.822639311 362.1748304
658.845516686 616.466219946 362.185296005
659.189385362 615.20448288 362.19589291
654.828338932 617.084924298 361.605865319
655.23054254 617.007439744 361.61629047
655.63576926 616.991327114 361.626706719
656.040099044 616.957005874 361.637125609
656.445939383 616.953350268 361.647540052
656.851355217 616.941076824 361.657955745
657.255636749 616.905776034 361.668374777
657.66190276 616.91076195 361.678787966
658.064318692 616.837587755 361.689212492
658.469899792 616.828669378 361.699627698
658.872860838 616.7665615 361.710050618
659.23278859 615.830838365 361.720600241
659.596240609 614.966661073 361.731139487
654.839437569 617.055467024 361.130667764
655.244641244 617.038886576 361.141084081
655.646726331 616.958995918 361.151509581
656.052897992 616.962066459 361.161923048
656.45814803 616.946427208 361.172339229
656.863303676 616.928871719 361.182755687
657.269333516 616.929063161 361.193169572
657.673331912 616.888014429 361.203589438
658.077496141 616.850332272 361.214008816
658.481872316 616.816952802 361.22442757
658.887760382 616.814266102 361.234841872
659.264080467 616.211322339 361.245343231
659.642763971 615.656358139 361.255837631
659.985147358 614.364468328 361.26643891
654.854481101 617.106094729 360.655458594
655.255172814 616.99791731 360.665888196
655.660872262 616.991401492 360.676303053
656.065059332 616.954183028 360.686722364
656.471632548 616.965405511 360.697134649
656.875890503 616.929626071 360.707553751
657.281565807 616.922620094 360.717968679
657.685682786 616.883978717 360.728388196
658.089539408 616.840051843 360.73880848
658.49493156 616.827297637 360.749224242
658.899945512 616.806865636 360.759641118
659.274705875 616.172258087 360.770147069
659.652471761 615.598665395 360.780644171
654.863737436 617.039237043 360.180266463
655.270169549 617.047594998 360.190679163
655.671781856 616.958106472 360.201106055
656.079937498 617.001453651 360.211513681
656.482495095 616.931155392 360.221937789
656.888288482 616.926546606 360.23235237
657.293703937 616.91426549 360.242768064
657.698292766 616.88520309 360.253186191
658.102173594 616.84176762 360.263606403
658.507329264 616.824212612 360.274022862
658.906064389 616.676314681 360.284458225
659.267077515 615.762625626 360.295004652
659.647231399 615.23751147 360.305494723
654.87783615 617.070684068 359.705060075
655.28051166 617.002779546 359.715483836
655.686754381 617.007292661 359.725897094
656.089784045 616.946577789 359.736319812
656.497113452 616.973151642 359.746729871
656.900237555 616.914353967 359.757152311
657.306196605 616.913108303 359.767566404
657.71031313 616.874457721 359.777985922
658.114618558 616.839642008 359.788404884
658.520199446 616.830719316 359.798820091
658.878688113 615.865781446 359.809373951
659.276006486 615.689122139 359.819813485
659.633145138 614.696777723 359.83037132
654.889265354 617.047937601 359.229861546
655.294256281 617.027038167 359.24027849
655.697309499 616.966801468 359.250701139
656.104614885 616.992887657 359.261111268
656.506936303 616.917794732 359.271536072
656.914525014 616.949632698 359.281945367
657.317696651 616.891799997 359.292367667
657.723750182 616.892472391 359.302781482
658.1272998 616.842313075 359.313202669
658.530426434 616.783566785 359.323625102
658.890070742 615.842089475 359.33417556
659.287246666 615.662538308 359.344615513
659.643276305 614.647679917 359.355176613
654.90168683 617.045335158 358.754660096
655.306204892 617.014836131 358.765078432
655.712234722 617.015027381 358.775492317
656.115382738 616.956715165 358.785914687
656.52115309 616.951638755 358.796329336
656.925481405 616.917287694 358.80674823
657.331818616 616.923719058 358.81716121
657.734943074 616.864928574 358.827583649
658.140406228 616.853615788 358.837999203
658.545160447 616.827910949 358.848416843
658.937049087 616.541023111 358.858872364
659.300140643 615.669528075 358.869412672
659.655699859 614.645119671 358.879975157
654.914817029 617.057120455 358.27945656
655.319027918 617.020385532 358.2898758
655.723427864 616.987488645 358.300294484
656.129174359 616.981927926 358.310709203
656.532747291 616.932241892 358.321130322
656.940076462 616.958810951 358.331540381
657.342846416 616.892823719 358.341963864
657.748167877 616.878634422 358.352379834
658.15256763 616.845733603 358.362798518
658.557605424 616.825785623 358.373215324
658.955419017 616.659179721 358.3836534
659.304606597 615.505421262 358.394234645
659.657778718 614.432552637 358.404804159
654.926576828 617.041085371 357.804257058
655.33203985 617.0297699 357.814672612
655.736865015 617.005505329 357.825090043
656.140272963 616.952469981 357.835511648
656.547531321 616.977601455 357.845921916
656.950253665 616.910647717 357.856345539
657.357464787 616.934820258 357.866755945
657.760636494 616.876988995 357.877178245
658.165272701 616.848888405 357.887596233
658.569294844 616.808321776 357.89801603
658.908231303 615.446456173 357.908627457
659.265186118 614.450379703 357.919185833
654.94079362 617.07492949 357.329050322
655.344154384 617.020936261 357.339472065
655.748601415 616.988995239 357.34989061
656.155198153 617.000695224 357.360302826
656.557778978 616.93086852 357.370726866
656.965202555 616.959354103 357.381136647
657.368279583 616.899600755 357.391559226
657.774569615 616.905074336 357.401972345
658.176772926 616.827583742 357.412397496
658.554138174 616.245857735 357.422895778
654.952860185 617.065122054 356.853849917
655.357614853 617.039426324 356.864267556
655.762440093 617.015163289 356.874684988
656.165186615 616.948700379 356.88510854
656.572232243 616.96951325 356.895519434
656.975356119 616.910710973 356.905941875
657.382023741 616.923849979 356.916353882
657.78531365 616.868418303 356.926775834
658.190422546 616.849913757 356.93719243
658.577399833 616.463320926 356.947662411
658.895191961 614.672206075 356.958336094
654.965612384 617.069233583 356.378647493
655.370083593 617.03778339 356.389065967
655.773278887 616.980430971 356.399488198
656.179403204 616.982540375 356.409901804
656.582504055 616.923270664 356.420324313
656.989336873 616.939763301 356.430735834
657.393122553 616.894396253 356.441156326
657.798609371 616.883563845 356.45157181
658.201733738 616.82477154 356.461994249
658.606724439 616.803867503 356.472411193
658.967812118 615.89169196 356.482957401
659.305402375 614.502497214 356.493572792
654.978482622 617.075741438 355.903444722
655.382268714 617.030382733 355.913865213
655.786314478 616.990295619 355.92428494
656.190312991 616.949249285 355.934704805
656.595941488 616.941293102 355.945119872
657.000199302 616.905510785 355.955538974
657.40712679 616.923925315 355.965950216
657.80951905 616.850270551 355.976374811
658.21512396 616.841835524 355.986789947
658.616951338 616.75671315 355.997216205
658.976595877 615.815240538 356.007766662
659.325827916 614.662384638 356.018347776
654.991589277 617.087048754 355.428241255
655.393533057 617.004289445 355.43866717
655.79913782 616.995851445 355.449082306
656.203631965 616.964866863 355.459500713
656.607795575 616.927172145 355.469920092
657.014179956 616.9345611 355.480332933
657.417162521 616.872890078 355.49075579
657.822838424 616.865896279 355.501170717
658.226860289 616.825323994 355.511590514
658.593307723 616.021956354 355.522120941
658.967484192 615.375495213 355.532628612
659.325262846 614.39614343 355.543184562
655.002215417 617.047999367 354.953045091
655.407442609 617.031896325 354.963461339
655.810543432 616.972626039 354.973883847
656.215321176 616.947398797 354.984301419
656.621303672 616.9466291 354.994715443
657.025018746 616.899828687 355.005136143
657.430623358 616.891387619 355.01555128
657.83507063 616.859451486 355.025969824
658.207046452 616.168315193 355.036483974
658.590593962 615.712094764 355.046964054
658.940580402 614.574553885 355.057542947
655.015629179 617.065541235 354.477840719
655.418517452 617.001955989 354.488263854
655.823555175 616.982006572 354.49868066
656.228711285 616.964460481 354.509097117
656.632449559 616.918131047 354.519517749
657.03807807 616.910175152 354.529932815
657.442454184 616.876794435 354.540351569
657.832521734 616.552936793 354.550812452
658.198449984 615.73902925 354.561344407
658.581974818 615.282348484 354.571824554
655.027648778 617.054780333 354.002640452
655.431482171 617.010381903 354.013060804
655.836307312 616.986116854 354.023478236
656.240423767 616.947464833 354.033897754
656.645981337 616.938068763 354.04431303
657.049908858 616.8955812 354.054733104
657.455253726 616.881867102 354.065149006
657.845157607 616.554686808 354.07561037
658.210682407 615.732588869 354.086143514
658.560527337 614.592175218 354.096722824
655.040967987 617.070402705 353.527436359
655.443501993 616.999625508 353.537860537
655.848091024 616.970567229 353.548278664
656.253081682 616.94966233 353.558695608
656.657670507 616.920599834 353.569113736
657.063038878 616.907362853 353.579529568
657.467769513 616.881179266 353.589947278
657.827470393 615.940850422 353.600497569
658.184067323 614.937508533 353.611056999
655.051428852 617.027998058 353.052240682
655.456348852 617.005658738 353.062657834
655.860465335 616.967007292 353.073077353
656.265502861 616.947053847 353.083494159
656.670564432 616.927588547 353.093910895
657.07529493 616.901402178 353.104328605
657.427673727 615.812428344 353.114900455
655.064889641 617.046494642 352.577036172
655.468415819 616.995859453 352.587457428
655.873170174 616.970157394 352.597875068
656.273888455 616.862519317 352.608304592
656.665021556 616.560293338 352.618762337
657.025468598 615.635112255 352.629310431
655.07676783 617.032862979 352.101836322
655.478997004 616.955897436 352.112261397
655.870576007 616.662723662 352.122717829
656.218787384 615.489147388 352.133301948
656.582946955 614.639334051 352.143839112
655.060507195 616.447987432 351.62671932
655.389603965 614.886367151 351.637359719
655.780052497 614.570243784 351.647819479