VERSION 0.7
FIELDS x y z
SIZE 4 4 4
TYPE F F F
COUNT 1 1 1
WIDTH 1706
HEIGHT 1
VIEWPOINT 0.0 0.0 0.0 1.0 0.0 0.0 0.0
POINTS 1706
DATA ascii
505.888 608.117 368.417
506.224 608.313 368.433
506.556 608.115 368.444
506.894 608.555 368.462
507.229 608.76 368.478
507.56 608.396 368.487
507.891 608.136 368.498
508.227 608.302 368.513
508.558 608.035 368.524
508.896 608.445 368.542
509.234 608.941 368.56
491.2 607.911 367.432
503.552 607.987 367.932
503.889 608.3 367.948
504.222 608.185 367.961
504.555 608.089 367.973
504.887 607.981 367.985
505.226 608.481 368.004
505.565 609.043 368.023
505.9 609.1 368.038
506.234 609.135 368.051
506.567 609.074 368.064
506.9 608.988 368.077
507.234 608.976 368.09
507.567 608.945 368.103
507.901 608.969 368.117
508.235 608.938 368.13
508.569 608.952 368.144
508.903 608.965 368.157
509.237 608.982 368.171
489.873 608.487 366.995
490.21 608.885 367.012
490.546 609.076 367.028
490.882 609.278 367.043
491.216 609.318 367.057
491.541 608.382 367.061
503.221 607.993 367.528
503.564 608.991 367.552
503.9 609.223 367.568
504.235 609.309 367.583
504.568 609.243 367.595
504.901 609.137 367.608
505.236 609.282 367.623
505.571 609.403 367.637
505.905 609.402 367.651
506.238 609.4 367.664
506.572 609.384 367.678
506.905 609.305 367.69
507.237 609.101 367.702
507.572 609.19 367.716
507.906 609.204 367.73
508.238 609.076 367.742
508.571 608.97 367.754
508.905 608.958 367.768
509.239 608.989 367.781
484.863 608.033 366.398
488.535 607.944 366.545
488.87 608.095 366.56
489.205 608.242 366.575
489.546 609.019 366.597
489.884 609.488 366.615
490.219 609.583 366.63
490.553 609.577 366.643
490.887 609.574 366.657
491.22 609.575 366.67
491.551 609.258 366.68
502.887 607.801 367.123
503.231 608.884 367.148
503.569 609.328 367.166
503.904 609.432 367.181
504.238 609.429 367.194
504.572 609.424 367.207
504.905 609.42 367.221
505.239 609.41 367.234
505.573 609.41 367.248
505.907 609.401 367.261
506.241 609.393 367.275
506.574 609.408 367.288
506.908 609.381 367.301
507.242 609.401 367.315
507.576 609.383 367.328
507.909 609.377 367.342
508.243 609.385 367.355
508.575 609.185 367.367
508.907 608.973 367.378
509.241 608.978 367.391
484.538 608.718 366.002
484.877 609.219 366.021
485.21 609.156 366.033
485.535 608.234 366.037
487.87 608.005 366.129
488.208 608.463 366.147
488.551 609.421 366.171
488.885 609.532 366.185
489.219 609.47 366.198
489.553 609.484 366.212
489.887 609.577 366.226
490.221 609.578 366.24
490.555 609.58 366.253
490.889 609.574 366.267
491.223 609.59 366.28
491.555 609.448 366.292
491.875 608.019 366.291
502.894 608.31 366.739
503.237 609.3 366.763
503.573 609.442 366.777
503.906 609.437 366.791
504.24 609.436 366.804
504.574 609.428 366.818
504.908 609.422 366.831
505.241 609.424 366.845
505.575 609.412 366.858
505.909 609.405 366.871
506.243 609.411 366.885
506.576 609.394 366.898
506.91 609.409 366.912
507.244 609.392 366.925
507.578 609.391 366.939
507.912 609.393 366.952
508.245 609.377 366.965
508.579 609.356 366.979
508.909 608.965 366.988
509.243 609.007 367.002
484.2 607.996 365.591
484.545 609.234 365.617
484.879 609.217 365.631
485.213 609.214 365.644
485.543 608.801 365.653
487.204 607.965 365.712
487.546 608.884 365.735
487.883 609.189 365.752
488.218 609.282 365.766
488.554 609.595 365.783
488.888 609.596 365.796
489.222 609.595 365.81
489.556 609.587 365.823
489.89 609.591 365.837
490.223 609.581 365.85
490.557 609.579 365.864
490.891 609.579 365.877
491.225 609.584 365.891
491.558 609.52 365.903
491.877 607.919 365.9
502.899 608.605 366.352
503.24 609.401 366.374
503.575 609.445 366.388
503.909 609.441 366.401
504.242 609.438 366.415
504.576 609.427 366.428
504.91 609.442 366.442
505.244 609.422 366.455
505.577 609.426 366.468
505.911 609.41 366.482
506.245 609.414 366.495
506.579 609.413 366.509
506.912 609.395 366.522
507.246 609.404 366.536
507.58 609.398 366.549
507.914 609.386 366.562
508.248 609.4 366.576
508.581 609.355 366.589
508.912 609.007 366.599
509.245 608.999 366.612
484.547 609.19 365.227
484.881 609.224 365.241
485.215 609.217 365.254
485.545 608.856 365.264
487.209 608.276 365.326
487.551 609.189 365.348
487.885 609.187 365.362
488.22 609.318 365.377
488.557 609.597 365.393
488.89 609.596 365.407
489.224 609.6 365.42
489.558 609.591 365.434
489.892 609.587 365.447
490.226 609.592 365.46
490.559 609.581 365.474
490.893 609.585 365.487
491.227 609.584 365.501
491.561 609.594 365.514
491.88 608.077 365.512
502.9 608.482 365.961
503.243 609.448 365.984
503.577 609.455 365.998
503.911 609.441 366.011
504.245 609.452 366.025
504.578 609.444 366.038
504.912 609.427 366.052
505.246 609.446 366.065
505.58 609.425 366.079
505.913 609.434 366.092
506.247 609.416 366.105
506.581 609.406 366.119
506.915 609.415 366.132
507.248 609.402 366.146
507.582 609.406 366.159
507.916 609.399 366.173
508.25 609.395 366.186
508.584 609.398 366.2
508.915 609.17 366.211
509.248 609.01 366.223
484.549 609.143 364.837
484.885 609.43 364.853
485.22 609.491 364.868
485.553 609.455 364.881
485.878 608.478 364.884
487.213 608.482 364.938
487.553 609.193 364.959
487.888 609.306 364.973
488.224 609.526 364.989
488.559 609.613 365.004
488.893 609.606 365.017
489.226 609.598 365.03
489.56 609.594 365.044
489.894 609.59 365.057
490.228 609.59 365.071
490.562 609.591 365.084
490.895 609.579 365.098
491.229 609.59 365.111
491.563 609.587 365.125
491.887 608.559 365.127
502.905 608.823 365.575
503.245 609.459 365.595
503.579 609.453 365.608
503.913 609.456 365.622
504.247 609.446 365.635
504.581 609.451 365.649
504.914 609.441 365.662
505.248 609.438 365.676
505.582 609.441 365.689
505.915 609.422 365.702
506.249 609.424 365.716
506.583 609.428 365.729
506.917 609.404 365.743
507.251 609.422 365.756
507.584 609.406 365.769
507.918 609.408 365.783
508.252 609.408 365.796
508.586 609.398 365.81
508.917 609.152 365.821
509.25 609.0 365.833
484.553 609.352 364.449
484.89 609.662 364.466
485.223 609.647 364.479
485.557 609.646 364.493
485.891 609.642 364.506
486.213 608.412 364.507
487.217 608.64 364.55
487.557 609.351 364.571
487.893 609.614 364.587
488.227 609.611 364.6
488.561 609.609 364.614
488.895 609.607 364.627
489.229 609.606 364.641
489.562 609.604 364.654
489.896 609.601 364.668
490.23 609.594 364.681
490.564 609.59 364.694
490.898 609.598 364.708
491.231 609.593 364.721
491.565 609.604 364.735
491.893 608.976 364.742
502.91 609.05 365.187
503.248 609.464 365.205
503.581 609.46 365.219
503.915 609.452 365.232
504.249 609.458 365.246
504.583 609.456 365.259
504.916 609.438 365.272
505.25 609.449 365.286
505.584 609.427 365.299
505.918 609.444 365.313
506.252 609.428 365.326
506.585 609.418 365.339
506.919 609.434 365.353
507.253 609.413 365.366
507.587 609.418 365.38
507.921 609.415 365.393
508.254 609.401 365.407
508.588 609.416 365.42
508.92 609.211 365.432
509.252 609.023 365.443
484.556 609.466 364.061
484.892 609.661 364.076
485.225 609.651 364.09
485.559 609.649 364.103
485.893 609.644 364.117
486.22 608.892 364.122
487.215 608.286 364.156
487.56 609.474 364.182
487.896 609.625 364.197
488.229 609.618 364.211
488.563 609.615 364.224
488.897 609.613 364.238
489.231 609.61 364.251
489.565 609.602 364.264
489.898 609.598 364.278
490.232 609.603 364.291
490.566 609.592 364.305
490.9 609.595 364.318
491.234 609.599 364.332
491.567 609.599 364.345
491.898 609.25 364.355
502.909 608.737 364.794
503.248 609.291 364.814
503.584 609.471 364.829
503.917 609.457 364.842
504.251 609.456 364.856
504.585 609.461 364.869
504.919 609.452 364.883
505.252 609.443 364.896
505.586 609.449 364.91
505.92 609.434 364.923
506.254 609.439 364.936
506.588 609.432 364.95
506.921 609.423 364.963
507.255 609.429 364.977
507.589 609.413 364.99
507.923 609.413 365.004
508.257 609.426 365.017
508.59 609.408 365.03
508.923 609.322 365.043
509.254 609.016 365.053
484.211 608.016 363.642
484.56 609.643 363.673
484.894 609.671 363.687
485.228 609.657 363.7
485.561 609.649 363.713
485.895 609.648 363.727
486.22 608.693 363.73
487.556 608.83 363.786
487.898 609.624 363.807
488.232 609.623 363.821
488.565 609.622 363.834
488.899 609.615 363.848
489.233 609.61 363.861
489.567 609.615 363.875
489.901 609.606 363.888
490.234 609.602 363.901
490.568 609.6 363.915
490.902 609.595 363.928
491.236 609.596 363.942
491.57 609.601 363.955
491.899 609.118 363.964
502.906 608.238 364.399
503.252 609.428 364.425
503.586 609.472 364.439
503.919 609.461 364.453
504.253 609.468 364.466
504.587 609.454 364.479
504.921 609.461 364.493
505.255 609.443 364.506
505.588 609.446 364.52
505.922 609.456 364.533
506.256 609.434 364.547
506.59 609.437 364.56
506.924 609.439 364.574
507.257 609.426 364.587
507.591 609.433 364.6
507.925 609.426 364.614
508.259 609.418 364.627
508.592 609.424 364.641
508.925 609.324 364.653
509.256 609.034 364.664
484.213 608.02 363.253
484.562 609.627 363.283
484.896 609.679 363.297
485.23 609.662 363.31
485.564 609.657 363.324
485.897 609.654 363.337
486.218 608.272 363.336
487.553 608.19 363.389
487.898 609.391 363.415
488.234 609.607 363.431
488.568 609.619 363.445
488.901 609.623 363.458
489.235 609.617 363.471
489.569 609.611 363.485
489.903 609.611 363.498
490.237 609.605 363.512
490.57 609.601 363.525
490.904 609.599 363.539
491.238 609.596 363.552
491.572 609.611 363.566
491.905 609.535 363.578
492.225 608.094 363.577
502.913 608.729 364.015
503.254 609.465 364.036
503.588 609.472 364.049
503.922 609.476 364.063
504.255 609.461 364.076
504.589 609.477 364.09
504.923 609.453 364.103
505.257 609.457 364.117
505.591 609.465 364.13
505.924 609.446 364.143
506.258 609.457 364.157
506.592 609.432 364.17
506.926 609.438 364.184
507.26 609.44 364.197
507.593 609.425 364.211
507.927 609.432 364.224
508.261 609.431 364.238
508.595 609.425 364.251
508.929 609.434 364.265
509.259 609.084 364.274
484.56 609.19 362.889
484.898 609.682 362.907
485.232 609.67 362.921
485.566 609.663 362.934
485.898 609.487 362.946
486.218 608.004 362.944
487.888 608.089 363.012
488.227 608.664 363.031
488.57 609.628 363.055
488.904 609.621 363.068
489.237 609.619 363.082
489.571 609.615 363.095
489.905 609.613 363.109
490.239 609.609 363.122
490.572 609.601 363.135
490.906 609.604 363.149
491.24 609.61 363.162
491.574 609.622 363.176
491.908 609.61 363.189
492.23 608.368 363.19
502.574 607.909 363.603
502.921 609.334 363.631
503.256 609.481 363.646
503.59 609.473 363.66
503.924 609.481 363.673
504.258 609.478 363.687
504.591 609.468 363.7
504.925 609.468 363.713
505.259 609.459 363.727
505.593 609.455 363.74
505.927 609.465 363.754
506.26 609.438 363.767
506.594 609.452 363.781
506.928 609.449 363.794
507.262 609.431 363.807
507.596 609.448 363.821
507.929 609.438 363.834
508.263 609.435 363.848
508.597 609.431 363.861
508.931 609.431 363.875
509.263 609.246 363.886
484.556 608.595 362.493
484.898 609.418 362.515
485.232 609.442 362.528
485.565 609.339 362.541
485.895 608.927 362.55
488.232 609.021 362.645
488.572 609.629 362.665
488.906 609.625 362.679
489.24 609.623 362.692
489.573 609.62 362.705
489.907 609.619 362.719
490.241 609.613 362.732
490.575 609.618 362.746
490.908 609.609 362.759
491.242 609.609 362.773
491.576 609.616 362.786
491.91 609.597 362.8
492.229 608.034 362.797
502.582 608.528 363.22
502.925 609.482 363.243
503.259 609.485 363.257
503.592 609.485 363.27
503.926 609.479 363.283
504.26 609.479 363.297
504.594 609.473 363.31
504.927 609.463 363.324
505.261 609.47 363.337
505.595 609.464 363.351
505.929 609.452 363.364
506.263 609.469 363.378
506.596 609.442 363.391
506.93 609.451 363.404
507.264 609.451 363.418
507.598 609.436 363.431
507.931 609.442 363.445
508.265 609.433 363.458
508.599 609.432 363.472
508.933 609.444 363.485
509.265 609.268 363.497
484.559 608.598 362.103
484.899 609.261 362.123
485.232 609.245 362.137
485.566 609.247 362.15
485.891 608.32 362.154
487.894 608.35 362.235
488.24 609.637 362.262
488.574 609.633 362.275
488.908 609.63 362.289
489.242 609.625 362.302
489.576 609.622 362.316
489.909 609.62 362.329
490.243 609.622 362.343
490.577 609.614 362.356
490.911 609.614 362.37
491.244 609.605 362.383
491.578 609.619 362.397
491.912 609.619 362.41
492.232 608.106 362.408
502.586 608.752 362.832
502.927 609.482 362.853
503.261 609.489 362.867
503.594 609.486 362.88
503.928 609.492 362.894
504.262 609.482 362.907
504.596 609.473 362.921
504.93 609.482 362.934
505.263 609.471 362.947
505.597 609.47 362.961
505.931 609.47 362.974
506.265 609.452 362.988
506.599 609.461 363.001
506.932 609.448 363.015
507.266 609.452 363.028
507.6 609.45 363.042
507.934 609.432 363.055
508.268 609.444 363.068
508.601 609.445 363.082
508.935 609.436 363.095
509.268 609.34 363.108
484.56 608.548 361.713
484.901 609.265 361.734
485.235 609.251 361.747
485.568 609.249 361.76
485.89 608.019 361.761
487.895 608.219 361.844
488.243 609.64 361.872
488.576 609.638 361.886
488.91 609.631 361.899
489.244 609.627 361.913
489.578 609.625 361.926
489.911 609.625 361.939
490.245 609.622 361.953
490.579 609.618 361.966
490.913 609.612 361.98
491.247 609.612 361.993
491.58 609.615 362.007
491.914 609.62 362.02
492.236 608.382 362.021
502.588 608.724 362.442
502.929 609.494 362.464
503.263 609.489 362.477
503.597 609.501 362.491
503.93 609.483 362.504
504.264 609.493 362.517
504.598 609.483 362.531
504.932 609.471 362.544
505.266 609.483 362.558
505.599 609.459 362.571
505.933 609.469 362.585
506.267 609.473 362.598
506.601 609.456 362.611
506.935 609.462 362.625
507.268 609.453 362.638
507.602 609.446 362.652
507.936 609.453 362.665
508.27 609.436 362.679
508.603 609.44 362.692
508.937 609.453 362.706
509.271 609.407 362.719
484.558 608.037 361.318
484.899 608.856 361.34
485.235 609.051 361.355
485.563 608.487 361.363
488.234 608.557 361.471
488.579 609.642 361.496
488.912 609.634 361.509
489.246 609.637 361.523
489.58 609.631 361.536
489.914 609.628 361.55
490.247 609.623 361.563
490.581 609.62 361.577
490.915 609.619 361.59
491.249 609.615 361.603
491.583 609.623 361.617
491.917 609.627 361.631
492.241 608.659 361.634
502.584 608.044 362.045
502.931 609.481 362.074
503.265 609.503 362.087
503.599 609.496 362.101
503.933 609.497 362.114
504.266 609.48 362.128
504.6 609.492 362.141
504.934 609.491 362.155
505.268 609.473 362.168
505.602 609.489 362.182
505.935 609.472 362.195
506.269 609.47 362.208
506.603 609.473 362.222
506.937 609.451 362.235
507.271 609.466 362.249
507.604 609.455 362.262
507.938 609.449 362.275
508.272 609.457 362.289
508.606 609.448 362.302
508.939 609.448 362.316
509.272 609.3 362.328
488.572 608.764 361.097
488.914 609.642 361.12
489.248 609.637 361.133
489.582 609.635 361.147
489.916 609.63 361.16
490.25 609.625 361.173
490.583 609.622 361.187
490.917 609.626 361.2
491.251 609.623 361.214
491.585 609.631 361.227
491.919 609.63 361.241
492.245 608.868 361.246
502.589 608.366 361.659
502.932 609.358 361.683
503.267 609.505 361.698
503.601 609.504 361.711
503.935 609.494 361.724
504.269 609.501 361.738
504.602 609.489 361.751
504.936 609.485 361.765
505.27 609.498 361.778
505.604 609.475 361.792
505.938 609.487 361.805
506.271 609.474 361.819
506.605 609.457 361.832
506.939 609.471 361.846
507.273 609.457 361.859
507.606 609.458 361.872
507.94 609.464 361.886
508.274 609.445 361.899
508.608 609.454 361.913
508.942 609.459 361.926
509.273 609.202 361.937
485.563 608.034 360.578
488.568 608.021 360.7
488.913 609.237 360.726
489.25 609.641 360.743
489.584 609.636 360.757
489.918 609.633 360.77
490.252 609.63 360.784
490.586 609.628 360.797
490.919 609.625 360.811
491.253 609.626 360.824
491.587 609.628 360.838
491.921 609.633 360.851
492.248 608.94 360.857
502.597 608.968 361.275
502.932 609.107 361.29
503.268 609.317 361.306
503.602 609.355 361.32
503.936 609.371 361.333
504.271 609.5 361.348
504.605 609.501 361.362
504.938 609.497 361.375
505.272 609.479 361.388
505.606 609.496 361.402
505.94 609.479 361.415
506.273 609.478 361.429
506.607 609.478 361.442
506.941 609.464 361.456
507.275 609.467 361.469
507.609 609.457 361.483
507.942 609.458 361.496
508.276 609.467 361.51
508.61 609.451 361.523
508.944 609.467 361.537
509.274 609.043 361.546
484.898 608.046 360.162
485.24 608.962 360.185
485.577 609.254 360.201
485.908 608.946 360.212
486.233 608.032 360.216
488.905 608.158 360.325
489.251 609.489 360.352
489.586 609.638 360.367
489.92 609.604 360.38
490.254 609.635 360.394
490.588 609.633 360.407
490.922 609.631 360.421
491.255 609.626 360.434
491.589 609.632 360.448
491.923 609.637 360.461
492.249 608.808 360.466
502.256 607.971 360.862
502.6 609.074 360.887
502.936 609.288 360.902
503.27 609.357 360.917
503.603 609.2 360.928
503.935 609.088 360.941
504.272 609.352 360.957
504.607 609.492 360.972
504.941 609.5 360.985
505.274 609.492 360.999
505.608 609.481 361.012
505.942 609.49 361.026
506.276 609.475 361.039
506.609 609.479 361.053
506.943 609.479 361.066
507.277 609.466 361.079
507.611 609.473 361.093
507.945 609.457 361.106
508.278 609.452 361.12
508.612 609.463 361.133
508.946 609.462 361.147
509.273 608.722 361.153
484.903 608.306 359.775
485.246 609.275 359.798
485.579 609.261 359.812
485.913 609.263 359.825
486.239 608.391 359.829
489.246 608.664 359.954
489.585 609.248 359.973
489.918 609.215 359.986
490.254 609.447 360.002
490.59 609.635 360.018
490.924 609.629 360.031
491.258 609.629 360.045
491.591 609.633 360.058
491.925 609.638 360.072
492.255 609.22 360.081
502.603 609.134 360.498
502.94 609.509 360.515
503.274 609.507 360.528
503.608 609.516 360.542
503.94 609.325 360.553
504.275 609.468 360.568
504.609 609.501 360.582
504.943 609.493 360.596
505.277 609.5 360.609
505.61 609.497 360.623
505.944 609.481 360.636
506.278 609.492 360.649
506.612 609.48 360.663
506.945 609.471 360.676
507.279 609.485 360.69
507.613 609.463 360.703
507.947 609.476 360.717
508.281 609.47 360.73
508.614 609.454 360.743
508.948 609.47 360.757
509.28 609.198 360.768
484.903 608.155 359.383
485.248 609.277 359.409
485.581 609.261 359.422
485.915 609.26 359.435
486.243 608.597 359.442
489.242 608.112 359.558
489.585 609.071 359.582
489.921 609.221 359.597
490.257 609.453 359.612
490.592 609.632 359.628
490.926 609.63 359.641
491.26 609.634 359.655
491.594 609.633 359.668
491.927 609.639 359.682
492.255 608.952 359.688
502.603 608.907 360.105
502.942 609.514 360.125
503.276 609.526 360.139
503.61 609.507 360.152
503.944 609.517 360.166
504.277 609.511 360.179
504.611 609.502 360.192
504.945 609.508 360.206
505.279 609.493 360.219
505.613 609.498 360.233
505.946 609.489 360.246
506.28 609.477 360.26
506.614 609.489 360.273
506.948 609.484 360.287
507.281 609.466 360.3
507.615 609.479 360.314
507.949 609.462 360.327
508.283 609.466 360.34
508.617 609.472 360.354
508.95 609.46 360.367
509.28 608.996 360.376
485.247 608.975 359.016
485.584 609.264 359.032
485.917 609.212 359.045
486.242 608.246 359.048
489.914 608.26 359.197
490.253 608.858 359.217
490.594 609.642 359.238
490.928 609.641 359.252
491.262 609.635 359.265
491.596 609.639 359.279
491.93 609.645 359.292
492.255 608.752 359.296
502.603 608.688 359.713
502.944 609.52 359.735
503.278 609.511 359.749
503.612 609.522 359.762
503.945 609.469 359.775
504.28 609.513 359.789
504.613 609.51 359.803
504.947 609.494 359.816
505.281 609.493 359.83
505.615 609.494 359.843
505.948 609.479 359.856
506.282 609.498 359.87
506.616 609.493 359.883
506.95 609.481 359.897
507.284 609.476 359.91
507.617 609.463 359.924
507.951 609.466 359.937
508.285 609.463 359.951
508.619 609.45 359.964
508.953 609.467 359.977
509.276 608.379 359.98
485.24 608.058 358.616
485.577 608.308 358.632
485.909 608.153 358.644
490.587 608.629 358.838
490.93 609.573 358.861
491.264 609.637 358.875
491.598 609.638 358.889
491.932 609.644 358.902
492.254 608.413 358.903
502.597 607.886 359.315
502.941 608.889 359.339
503.278 609.257 359.356
503.608 608.864 359.366
503.937 608.376 359.374
504.277 608.969 359.394
504.615 609.424 359.412
504.949 609.498 359.426
505.283 609.49 359.44
505.617 609.485 359.453
505.95 609.48 359.467
506.282 609.275 359.478
506.613 608.939 359.488
506.944 608.667 359.499
507.278 608.662 359.512
507.617 609.201 359.531
507.952 609.328 359.546
508.286 609.395 359.56
508.618 609.189 359.571
508.948 608.72 359.58
490.918 608.157 358.457
491.259 608.894 358.478
491.596 609.162 358.494
491.924 608.552 358.501
504.938 608.085 359.022
505.273 608.216 359.037
505.611 608.617 359.054
505.941 608.276 359.064
503.297 608.041 368.022
503.635 608.259 368.03
503.966 608.08 368.039
504.304 608.334 368.048
504.639 608.429 368.057
504.969 608.17 368.066
505.299 607.907 368.075
506.632 607.731 368.11
506.969 607.931 368.119
507.3 607.719 368.128
507.636 607.867 368.137
507.969 607.811 368.145
502.622 607.796 367.614
502.97 608.683 367.622
503.316 609.393 367.631
503.651 609.428 367.639
503.984 609.397 367.648
504.319 609.411 367.657
504.652 609.383 367.666
504.986 609.398 367.675
505.32 609.364 367.684
505.647 608.938 367.693
505.981 608.929 367.702
506.312 608.785 367.711
506.65 609.029 367.719
506.983 608.96 367.728
507.318 609.042 367.737
507.652 609.039 367.746
507.985 608.929 367.755
508.318 608.877 367.763
508.649 608.725 367.772
508.974 608.148 367.782
509.304 607.946 367.791
502.636 608.847 367.224
502.98 609.439 367.232
503.313 609.42 367.241
503.648 609.422 367.25
503.981 609.419 367.258
504.315 609.402 367.267
504.649 609.414 367.276
504.983 609.399 367.285
505.317 609.402 367.294
505.651 609.402 367.303
505.985 609.39 367.311
506.319 609.385 367.32
506.653 609.382 367.329
506.986 609.345 367.338
507.321 609.37 367.347
507.654 609.357 367.356
507.985 609.172 367.365
508.315 608.934 367.374
508.649 608.913 367.382
508.983 608.923 367.391
509.317 608.911 367.4
509.646 608.605 367.409
509.964 607.674 367.419
484.926 608.55 366.367
485.266 608.951 366.375
485.6 608.955 366.384
485.934 608.94 366.393
486.27 609.021 366.401
486.607 609.221 366.41
486.942 609.26 366.419
487.264 608.564 366.428
487.594 608.353 366.437
487.924 608.092 366.446
489.259 608.02 366.482
502.281 607.801 366.826
502.64 609.268 366.834
502.976 609.415 366.842
503.31 609.426 366.851
503.644 609.412 366.86
503.978 609.414 366.869
504.312 609.417 366.878
504.646 609.398 366.886
504.98 609.406 366.895
505.314 609.391 366.904
505.648 609.389 366.913
505.982 609.397 366.922
506.316 609.383 366.931
506.649 609.373 366.939
506.984 609.377 366.948
507.317 609.361 366.957
507.651 609.353 366.966
507.985 609.318 366.975
508.312 608.94 366.984
508.646 608.927 366.993
508.98 608.909 367.002
509.314 608.914 367.01
509.648 608.905 367.019
509.97 608.188 367.029
484.249 608.203 365.96
484.599 609.171 365.967
484.938 609.483 365.976
485.275 609.682 365.985
485.609 609.683 365.993
485.943 609.681 366.002
486.278 609.722 366.011
486.612 609.702 366.02
486.946 609.707 366.029
487.279 609.661 366.038
487.611 609.549 366.046
487.946 609.621 366.055
488.276 609.332 366.064
488.599 608.729 366.074
488.942 609.249 366.082
489.279 609.443 366.091
489.602 608.779 366.1
502.636 609.249 366.444
502.973 609.433 366.452
503.307 609.426 366.461
503.641 609.422 366.47
503.975 609.419 366.479
504.309 609.406 366.488
504.643 609.415 366.497
504.977 609.396 366.505
505.311 609.392 366.514
505.645 609.398 366.523
505.978 609.381 366.532
506.312 609.389 366.541
506.646 609.382 366.55
506.98 609.363 366.558
507.314 609.369 366.567
507.648 609.349 366.576
507.982 609.349 366.585
508.313 609.163 366.594
508.643 608.917 366.603
508.977 608.925 366.612
509.31 608.905 366.621
509.645 608.916 366.629
509.965 608.081 366.639
484.252 608.615 365.569
484.598 609.328 365.578
484.939 609.727 365.586
485.273 609.723 365.595
485.607 609.725 365.604
485.941 609.708 365.612
486.274 609.704 365.621
486.608 609.698 365.63
486.942 609.688 365.639
487.276 609.691 365.648
487.61 609.679 365.657
487.944 609.69 365.665
488.278 609.681 365.674
488.612 609.668 365.683
488.946 609.664 365.692
489.28 609.662 365.701
489.613 609.605 365.71
489.933 608.771 365.719
490.254 608.001 365.729
502.276 607.9 366.047
502.633 609.226 366.054
502.97 609.42 366.063
503.304 609.426 366.072
503.638 609.415 366.08
503.972 609.416 366.089
504.306 609.418 366.098
504.64 609.403 366.107
504.974 609.408 366.116
505.307 609.401 366.125
505.641 609.392 366.133
505.975 609.398 366.142
506.309 609.381 366.151
506.643 609.378 366.16
506.977 609.373 366.169
507.311 609.353 366.178
507.645 609.357 366.186
507.979 609.351 366.195
508.313 609.35 366.204
508.644 609.21 366.213
508.978 609.198 366.222
509.31 609.065 366.231
509.641 608.909 366.24
509.961 608.036 366.249
484.247 608.509 365.18
484.595 609.34 365.188
484.936 609.734 365.196
485.269 609.719 365.205
485.603 609.72 365.214
485.937 609.713 365.223
486.271 609.703 365.232
486.605 609.702 365.24
486.939 609.698 365.249
487.273 609.691 365.258
487.607 609.692 365.267
487.941 609.677 365.276
488.275 609.679 365.284
488.609 609.669 365.293
488.943 609.666 365.302
489.277 609.663 365.311
489.61 609.656 365.32
489.938 609.265 365.329
490.262 608.664 365.338
502.282 608.455 365.656
502.631 609.355 365.664
502.967 609.43 365.673
503.3 609.414 365.682
503.635 609.421 365.691
503.968 609.413 365.699
504.302 609.409 365.708
504.636 609.412 365.717
504.97 609.405 365.726
505.304 609.404 365.735
505.638 609.396 365.744
505.972 609.385 365.752
506.306 609.384 365.761
506.64 609.377 365.77
506.974 609.368 365.779
507.308 609.367 365.788
507.642 609.359 365.797
507.976 609.36 365.805
508.309 609.35 365.814
508.643 609.336 365.823
508.977 609.342 365.832
509.311 609.333 365.841
509.639 608.987 365.85
509.954 607.827 365.86
484.241 608.355 364.79
484.592 609.319 364.798
484.931 609.667 364.807
485.266 609.721 364.815
485.6 609.712 364.824
485.934 609.71 364.833
486.268 609.7 364.842
486.602 609.696 364.851
486.936 609.698 364.859
487.27 609.692 364.868
487.604 609.686 364.877
487.938 609.68 364.886
488.272 609.675 364.895
488.605 609.673 364.904
488.939 609.667 364.912
489.273 609.663 364.921
489.607 609.66 364.93
489.938 609.448 364.939
490.261 608.816 364.949
501.935 607.854 365.258
502.287 608.948 365.266
502.629 609.427 365.274
502.963 609.42 365.283
503.297 609.426 365.292
503.631 609.409 365.301
503.965 609.423 365.31
504.299 609.411 365.319
504.633 609.398 365.327
504.967 609.408 365.336
505.301 609.393 365.345
505.635 609.394 365.354
505.969 609.391 365.363
506.303 609.379 365.372
506.637 609.377 365.38
506.971 609.372 365.389
507.304 609.364 365.398
507.638 609.36 365.407
507.972 609.348 365.416
508.306 609.344 365.425
508.64 609.344 365.433
508.974 609.33 365.442
509.308 609.344 365.451
509.637 609.067 365.46
509.953 607.934 365.47
484.581 608.862 364.409
484.929 609.692 364.417
485.263 609.715 364.426
485.597 609.717 364.434
485.931 609.706 364.443
486.265 609.708 364.452
486.599 609.703 364.461
486.933 609.698 364.47
487.267 609.689 364.479
487.6 609.687 364.487
487.934 609.68 364.496
488.268 609.673 364.505
488.602 609.672 364.514
488.936 609.666 364.523
489.27 609.663 364.531
489.604 609.657 364.54
489.938 609.651 364.549
490.271 609.577 364.558
490.583 608.283 364.568
501.937 608.152 364.868
502.285 609.025 364.876
502.626 609.424 364.885
502.96 609.438 364.894
503.294 609.42 364.902
503.628 609.43 364.911
503.962 609.413 364.92
504.296 609.413 364.929
504.63 609.408 364.938
504.964 609.394 364.947
505.298 609.398 364.955
505.632 609.393 364.964
505.966 609.387 364.973
506.3 609.387 364.982
506.633 609.372 364.991
506.967 609.375 364.999
507.301 609.365 365.008
507.635 609.356 365.017
507.969 609.362 365.026
508.303 609.342 365.035
508.637 609.343 365.044
508.971 609.34 365.052
509.305 609.339 365.061
509.634 609.056 365.07
509.951 608.034 365.08
484.571 608.487 364.019
484.926 609.729 364.027
485.26 609.714 364.036
485.594 609.712 364.045
485.928 609.71 364.053
486.261 609.7 364.062
486.595 609.696 364.071
486.929 609.696 364.08
487.263 609.689 364.089
487.597 609.685 364.098
487.931 609.68 364.106
488.265 609.676 364.115
488.599 609.674 364.124
488.933 609.666 364.133
489.267 609.661 364.142
489.601 609.653 364.151
489.935 609.648 364.159
490.269 609.643 364.168
490.592 609.027 364.178
501.932 608.052 364.479
502.282 609.011 364.487
502.623 609.409 364.495
502.957 609.429 364.504
503.291 609.428 364.513
503.625 609.416 364.521
503.959 609.423 364.53
504.293 609.408 364.539
504.627 609.405 364.548
504.961 609.411 364.557
505.294 609.393 364.566
505.628 609.397 364.574
505.962 609.391 364.583
506.296 609.381 364.592
506.63 609.387 364.601
506.964 609.366 364.61
507.298 609.365 364.619
507.632 609.361 364.627
507.966 609.345 364.636
508.3 609.354 364.645
508.633 609.335 364.654
508.967 609.337 364.663
509.301 609.327 364.672
509.629 608.973 364.681
509.943 607.724 364.691
484.567 608.419 363.63
484.923 609.73 363.637
485.257 609.726 363.646
485.591 609.716 363.655
485.924 609.706 363.664
486.258 609.704 363.673
486.592 609.695 363.681
486.926 609.691 363.69
487.26 609.688 363.699
487.594 609.683 363.708
487.928 609.677 363.717
488.262 609.673 363.726
488.596 609.669 363.734
488.93 609.661 363.743
489.264 609.658 363.752
489.597 609.652 363.761
489.931 609.649 363.77
490.265 609.639 363.779
490.598 609.568 363.787
501.925 607.804 364.089
502.276 608.861 364.097
502.62 609.429 364.105
502.954 609.42 364.114
503.288 609.428 364.123
503.622 609.42 364.132
503.956 609.413 364.141
504.29 609.417 364.149
504.623 609.402 364.158
504.957 609.404 364.167
505.291 609.401 364.176
505.625 609.387 364.185
505.959 609.389 364.193
506.293 609.385 364.202
506.627 609.369 364.211
506.961 609.38 364.22
507.295 609.358 364.229
507.629 609.36 364.238
507.963 609.359 364.246
508.294 609.181 364.255
508.625 609.03 364.264
508.961 609.123 364.273
509.293 609.007 364.282
509.625 608.876 364.291
484.562 608.334 363.24
484.919 609.728 363.247
485.253 609.726 363.256
485.587 609.718 363.265
485.921 609.712 363.274
486.255 609.701 363.283
486.589 609.693 363.292
486.923 609.693 363.3
487.257 609.693 363.309
487.591 609.68 363.318
487.925 609.676 363.327
488.259 609.672 363.336
488.593 609.673 363.345
488.926 609.661 363.353
489.26 609.657 363.362
489.594 609.652 363.371
489.928 609.649 363.38
490.262 609.642 363.389
490.596 609.639 363.398
490.909 608.36 363.408
502.269 608.603 363.707
502.616 609.418 363.715
502.951 609.434 363.724
503.284 609.417 363.733
503.618 609.422 363.742
503.952 609.416 363.751
504.286 609.404 363.76
504.62 609.418 363.768
504.954 609.398 363.777
505.288 609.396 363.786
505.622 609.399 363.795
505.956 609.385 363.804
506.29 609.379 363.813
506.624 609.373 363.821
506.958 609.37 363.83
507.292 609.367 363.839
507.625 609.36 363.848
507.959 609.346 363.857
508.292 609.278 363.866
508.625 609.209 363.875
508.961 609.341 363.883
509.294 609.302 363.892
509.623 608.968 363.901
509.935 607.673 363.911
484.567 608.812 362.85
484.915 609.63 362.858
485.25 609.729 362.867
485.584 609.714 362.875
485.918 609.693 362.884
486.252 609.698 362.893
486.586 609.698 362.902
486.92 609.691 362.911
487.254 609.695 362.92
487.587 609.681 362.928
487.921 609.676 362.937
488.255 609.673 362.946
488.589 609.665 362.955
488.923 609.662 362.964
489.257 609.659 362.973
489.591 609.651 362.981
489.925 609.65 362.99
490.259 609.644 362.999
490.593 609.638 363.008
490.912 608.731 363.018
502.27 608.863 363.317
502.613 609.43 363.326
502.947 609.422 363.335
503.281 609.434 363.343
503.615 609.42 363.352
503.949 609.417 363.361
504.283 609.42 363.37
504.617 609.402 363.379
504.951 609.405 363.388
505.285 609.402 363.396
505.619 609.389 363.405
505.953 609.387 363.414
506.287 609.383 363.423
506.62 609.369 363.432
506.954 609.38 363.44
507.288 609.36 363.449
507.622 609.355 363.458
507.956 609.353 363.467
508.29 609.339 363.476
508.624 609.353 363.485
508.958 609.345 363.493
509.292 609.345 363.502
509.616 608.757 363.512
484.569 609.122 362.46
484.906 609.322 362.468
485.242 609.402 362.477
485.574 609.338 362.486
485.909 609.352 362.495
486.249 609.698 362.503
486.583 609.7 362.512
486.916 609.689 362.521
487.25 609.688 362.53
487.584 609.68 362.539
487.918 609.676 362.547
488.252 609.67 362.556
488.586 609.668 362.565
488.92 609.663 362.574
489.254 609.662 362.583
489.588 609.649 362.592
489.922 609.647 362.6
490.256 609.638 362.609
490.589 609.632 362.618
490.908 608.682 362.628
502.266 608.815 362.928
502.61 609.424 362.936
502.944 609.431 362.945
503.278 609.42 362.954
503.612 609.431 362.962
503.946 609.413 362.971
504.28 609.404 362.98
504.614 609.418 362.989
504.947 609.394 362.998
505.282 609.395 363.007
505.616 609.401 363.015
505.949 609.383 363.024
506.283 609.381 363.033
506.617 609.377 363.042
506.951 609.367 363.051
507.285 609.374 363.06
507.619 609.352 363.068
507.953 609.356 363.077
508.287 609.352 363.086
508.621 609.339 363.095
508.955 609.351 363.104
509.289 609.342 363.113
509.604 608.243 363.122
484.567 609.222 362.07
484.903 609.306 362.079
485.237 609.297 362.088
485.57 609.289 362.096
485.908 609.525 362.105
486.245 609.696 362.114
486.579 609.702 362.122
486.913 609.689 362.131
487.247 609.69 362.14
487.581 609.674 362.149
487.915 609.674 362.158
488.249 609.666 362.167
488.583 609.669 362.175
488.917 609.66 362.184
489.251 609.657 362.193
489.584 609.647 362.202
489.918 609.644 362.211
490.251 609.573 362.22
490.577 609.094 362.229
490.893 608.004 362.239
502.254 608.297 362.539
502.603 609.194 362.546
502.941 609.428 362.555
503.275 609.438 362.564
503.609 609.413 362.573
503.943 609.421 362.582
504.276 609.408 362.59
504.61 609.406 362.599
504.944 609.404 362.608
505.278 609.396 362.617
505.612 609.391 362.626
505.946 609.396 362.635
506.28 609.378 362.643
506.614 609.374 362.652
506.948 609.368 362.661
507.282 609.36 362.67
507.616 609.36 362.679
507.95 609.35 362.688
508.283 609.347 362.696
508.618 609.353 362.705
508.951 609.345 362.714
509.274 608.659 362.723
484.562 609.068 361.68
484.9 609.315 361.689
485.233 609.296 361.698
485.57 609.439 361.706
485.908 609.712 361.715
486.242 609.695 361.724
486.576 609.697 361.733
486.91 609.686 361.742
487.244 609.686 361.75
487.578 609.677 361.759
487.912 609.673 361.768
488.246 609.669 361.777
488.58 609.672 361.786
488.913 609.658 361.794
489.247 609.656 361.803
489.581 609.649 361.812
489.915 609.644 361.821
490.231 608.539 361.831
502.597 609.03 362.157
502.938 609.423 362.165
503.272 609.426 362.174
503.606 609.425 362.183
503.939 609.409 362.192
504.273 609.406 362.201
504.607 609.416 362.209
504.941 609.4 362.218
505.275 609.399 362.227
505.609 609.395 362.236
505.943 609.381 362.245
506.277 609.38 362.254
506.611 609.371 362.262
506.945 609.367 362.271
507.279 609.369 362.28
507.612 609.357 362.289
507.946 609.354 362.298
508.28 609.355 362.307
508.614 609.339 362.315
508.948 609.356 362.324
509.258 607.905 362.335
484.553 608.76 361.291
484.896 609.317 361.299
485.23 609.298 361.308
485.567 609.488 361.317
485.905 609.709 361.325
486.239 609.695 361.334
486.573 609.694 361.343
486.907 609.69 361.352
487.241 609.684 361.361
487.561 608.867 361.37
487.906 609.545 361.378
488.242 609.665 361.387
488.576 609.664 361.396
488.91 609.658 361.405
489.244 609.655 361.414
489.578 609.646 361.422
489.912 609.642 361.431
490.233 608.891 361.441
502.24 607.867 361.759
502.6 609.389 361.767
502.934 609.432 361.776
503.268 609.424 361.784
503.602 609.421 361.793
503.936 609.427 361.802
504.27 609.414 361.811
504.604 609.402 361.82
504.938 609.409 361.829
505.272 609.393 361.837
505.606 609.392 361.846
505.94 609.385 361.855
506.273 609.375 361.864
506.607 609.371 361.873
506.941 609.37 361.882
507.275 609.363 361.89
507.609 609.362 361.899
507.943 609.354 361.908
508.277 609.353 361.917
508.611 609.348 361.926
508.945 609.34 361.935
509.252 607.699 361.945
484.539 608.093 360.902
484.887 608.963 360.91
485.227 609.298 360.918
485.562 609.337 360.927
485.901 609.66 360.936
486.236 609.696 360.944
486.57 609.695 360.953
486.903 609.687 360.962
487.225 608.942 360.972
487.899 609.282 360.989
488.239 609.665 360.997
488.573 609.666 361.006
488.907 609.656 361.015
489.241 609.652 361.024
489.575 609.648 361.033
489.908 609.625 361.042
490.236 609.266 361.051
490.558 608.548 361.06
502.243 608.213 361.369
502.597 609.427 361.377
502.931 609.426 361.386
503.265 609.428 361.395
503.599 609.43 361.404
503.933 609.415 361.412
504.267 609.418 361.421
504.601 609.405 361.43
504.935 609.4 361.439
505.269 609.401 361.448
505.602 609.39 361.456
505.936 609.384 361.465
506.27 609.379 361.474
506.604 609.37 361.483
506.938 609.369 361.492
507.272 609.366 361.501
507.606 609.353 361.509
507.94 609.353 361.518
508.274 609.351 361.527
508.608 609.346 361.536
508.937 609.087 361.545
485.214 608.74 360.529
485.557 609.287 360.537
485.892 609.331 360.546
486.23 609.541 360.555
486.56 609.335 360.564
486.88 608.474 360.573
487.88 608.338 360.6
488.234 609.565 360.608
488.57 609.664 360.616
488.904 609.655 360.625
489.238 609.649 360.634
489.571 609.644 360.643
489.901 609.4 360.652
490.232 609.214 360.661
490.561 608.902 360.67
502.238 608.147 360.98
502.594 609.422 360.987
502.928 609.431 360.996
503.262 609.426 361.005
503.596 609.42 361.014
503.93 609.419 361.023
504.263 609.404 361.031
504.598 609.405 361.04
504.931 609.396 361.049
505.265 609.393 361.058
505.599 609.391 361.067
505.933 609.383 361.076
506.267 609.374 361.084
506.601 609.379 361.093
506.935 609.367 361.102
507.269 609.363 361.111
507.603 609.36 361.12
507.937 609.352 361.129
508.271 609.353 361.137
508.605 609.346 361.146
508.938 609.3 361.155
509.245 607.681 361.165
485.202 608.182 360.14
485.552 609.132 360.148
485.888 609.279 360.156
486.222 609.273 360.165
486.543 608.463 360.175
488.207 608.115 360.219
488.551 608.715 360.228
488.891 609.068 360.236
489.233 609.599 360.244
489.568 609.647 360.253
489.902 609.639 360.262
490.232 609.378 360.271
490.559 609.0 360.28
502.588 609.277 360.598
502.925 609.423 360.606
503.259 609.423 360.615
503.592 609.413 360.624
503.926 609.414 360.633
504.26 609.41 360.642
504.594 609.399 360.651
504.928 609.396 360.659
505.262 609.397 360.668
505.596 609.383 360.677
505.93 609.387 360.686
506.264 609.38 360.695
506.598 609.367 360.703
506.932 609.367 360.712
507.265 609.355 360.721
507.6 609.359 360.73
507.933 609.351 360.739
508.267 609.346 360.748
508.601 609.353 360.756
508.935 609.343 360.765
509.245 607.887 360.776
485.532 608.126 359.759
485.871 608.422 359.768
486.201 608.214 359.777
489.231 609.632 359.855
489.565 609.643 359.863
489.899 609.637 359.872
490.233 609.632 359.881
490.545 608.311 359.891
502.585 609.309 360.208
502.921 609.426 360.217
503.255 609.423 360.225
503.589 609.417 360.234
503.923 609.412 360.243
504.257 609.403 360.252
504.591 609.402 360.261
504.925 609.399 360.27
505.259 609.386 360.278
505.593 609.397 360.287
505.927 609.378 360.296
506.261 609.376 360.305
506.595 609.374 360.314
506.928 609.356 360.323
507.262 609.361 360.331
507.596 609.348 360.34
507.93 609.346 360.349
508.264 609.348 360.358
508.598 609.342 360.367
508.931 609.263 360.376
488.869 608.17 359.458
489.228 609.648 359.465
489.562 609.642 359.474
489.896 609.634 359.483
490.23 609.637 359.491
490.539 608.142 359.502
502.581 609.245 359.818
502.918 609.425 359.827
503.252 609.422 359.836
503.586 609.417 359.845
503.92 609.406 359.853
504.254 609.412 359.862
504.588 609.395 359.871
504.922 609.399 359.88
505.256 609.397 359.889
505.589 609.383 359.898
505.923 609.379 359.906
506.257 609.371 359.915
506.591 609.37 359.924
506.925 609.365 359.933
507.259 609.355 359.942
507.593 609.354 359.951
507.927 609.358 359.959
508.261 609.339 359.968
508.595 609.35 359.977
508.921 608.867 359.986
489.218 609.241 359.076
489.558 609.641 359.084
489.892 609.637 359.093
490.22 609.228 359.102
502.575 609.064 359.429
502.915 609.42 359.437
503.249 609.413 359.446
503.583 609.416 359.455
503.917 609.405 359.464
504.251 609.402 359.472
504.585 609.402 359.481
504.918 609.383 359.49
505.252 609.39 359.499
505.586 609.381 359.508
505.92 609.372 359.517
506.254 609.362 359.525
506.588 609.366 359.534
506.922 609.349 359.543
507.256 609.362 359.552
507.59 609.348 359.561
507.923 609.338 359.57
508.258 609.342 359.578
508.587 609.079 359.587
508.906 608.147 359.597
489.194 608.029 358.687
489.537 608.564 358.695
489.873 608.69 358.704
490.196 608.012 358.713
502.555 608.09 359.04
502.906 609.115 359.048
503.242 609.207 359.056
503.575 609.133 359.065
503.905 608.925 359.074
504.238 608.854 359.083
504.564 608.378 359.093
504.899 608.439 359.101
505.233 608.435 359.11
505.563 608.159 359.119
505.901 608.425 359.128
506.238 608.619 359.136
506.565 608.209 359.146
506.897 608.071 359.155
507.239 608.533 359.163
507.577 608.8 359.172
507.906 608.508 359.181
508.23 607.913 359.19
508.561 607.689 359.199