VERSION 0.7
FIELDS x y z
SIZE 4 4 4
TYPE F F F
COUNT 1 1 1
WIDTH 2020
HEIGHT 1
VIEWPOINT 0.0 0.0 0.0 1.0 0.0 0.0 0.0
POINTS 2020
DATA ascii
665.108 625.627 372.722
665.458 625.659 372.723
665.807 625.656 372.724
666.146 624.632 372.726
662.897 625.762 372.174
663.245 625.669 372.176
663.595 625.716 372.177
663.943 625.63 372.178
664.292 625.654 372.179
664.641 625.634 372.18
664.99 625.668 372.181
665.339 625.628 372.182
665.688 625.588 372.184
666.022 624.061 372.186
662.778 625.724 371.634
663.127 625.724 371.635
663.476 625.654 371.636
663.825 625.68 371.638
664.174 625.615 371.639
664.523 625.671 371.64
664.872 625.635 371.641
665.215 625.01 371.643
665.556 624.146 371.645
662.66 625.727 371.094
663.009 625.731 371.095
663.359 625.816 371.096
663.707 625.719 371.097
664.056 625.646 371.098
664.405 625.636 371.099
664.752 625.44 371.101
665.433 623.744 371.105
662.546 626.172 370.553
662.896 626.229 370.554
663.245 626.251 370.555
663.594 626.2 370.556
663.938 625.702 370.558
664.286 625.637 370.559
664.636 625.643 370.56
664.98 625.191 370.562
665.334 625.638 370.562
665.682 625.583 370.564
666.017 624.137 370.566
662.43 626.342 370.012
662.778 626.271 370.013
663.127 626.267 370.015
663.476 626.258 370.016
663.824 626.19 370.017
664.169 625.723 370.019
664.517 625.656 370.02
664.867 625.66 370.021
665.216 625.662 370.022
665.565 625.645 370.023
665.907 624.935 370.025
662.311 626.316 369.472
662.66 626.295 369.473
663.008 626.239 369.474
663.358 626.262 369.475
663.707 626.257 369.477
664.053 625.938 369.478
664.399 625.648 369.479
664.748 625.663 369.48
665.097 625.657 369.482
665.446 625.644 369.483
665.786 624.708 369.485
662.193 626.325 368.932
662.541 626.279 368.933
662.89 626.266 368.934
663.239 626.233 368.935
663.589 626.272 368.936
663.935 625.94 368.938
664.281 625.63 368.939
664.63 625.67 368.94
664.979 625.645 368.941
665.328 625.658 368.942
665.665 624.371 368.945
662.074 626.305 368.391
662.423 626.291 368.392
662.772 626.245 368.393
663.121 626.27 368.395
663.47 626.248 368.396
663.817 626.02 368.397
664.163 625.662 368.399
664.512 625.643 368.4
664.861 625.686 368.401
665.21 625.639 368.402
665.558 625.572 368.403
665.899 624.693 368.405
661.956 626.322 367.851
662.305 626.278 367.852
662.654 626.274 367.853
663.003 626.246 367.854
663.352 626.263 367.855
663.699 626.01 367.857
664.044 625.618 367.858
664.394 625.678 367.859
664.743 625.649 367.861
665.092 625.666 367.862
665.441 625.642 367.863
665.79 625.659 367.864
666.13 624.691 367.866
661.838 626.33 367.31
662.187 626.308 367.312
662.536 626.258 367.313
662.885 626.261 367.314
663.234 626.229 367.315
663.583 626.268 367.316
663.928 625.871 367.318
664.275 625.642 367.319
664.625 625.679 367.32
664.973 625.629 367.321
665.323 625.649 367.322
665.672 625.65 367.323
666.021 625.645 367.325
666.357 624.292 367.327
690.437 623.497 367.406
690.79 623.902 367.407
691.137 623.655 367.408
661.72 626.312 366.77
662.069 626.312 366.771
662.417 626.264 366.772
662.766 626.255 366.773
663.116 626.265 366.775
663.465 626.25 366.776
663.812 626.081 366.777
664.157 625.685 366.779
664.506 625.636 366.78
664.855 625.65 366.781
665.204 625.63 366.782
665.553 625.658 366.783
665.902 625.642 366.784
666.245 624.934 366.786
690.333 624.966 366.864
690.687 625.447 366.865
691.035 625.372 366.866
691.369 623.82 366.869
661.602 626.329 366.23
661.95 626.275 366.231
662.299 626.279 366.232
662.648 626.239 366.233
662.997 626.262 366.234
663.347 626.285 366.235
663.695 626.244 366.236
664.04 625.769 366.238
664.388 625.681 366.239
664.737 625.636 366.24
665.085 625.56 366.242
665.435 625.644 366.243
665.784 625.661 366.244
666.123 624.602 366.246
689.852 623.502 366.324
690.22 625.436 366.323
690.569 625.454 366.324
690.918 625.456 366.326
691.256 624.312 366.328
661.483 626.289 365.689
661.832 626.329 365.69
662.181 626.26 365.692
662.53 626.257 365.693
662.879 626.256 365.694
663.228 626.246 365.695
663.577 626.265 365.696
663.924 625.979 365.697
664.269 625.635 365.699
664.615 625.25 365.701
664.949 623.742 365.703
665.306 624.541 365.703
665.653 624.372 365.705
689.387 623.827 365.782
689.744 624.633 365.783
690.101 625.445 365.783
690.451 625.455 365.784
690.8 625.453 365.785
691.138 624.389 365.787
661.365 626.331 365.149
661.714 626.287 365.15
662.063 626.31 365.151
662.412 626.239 365.152
662.761 626.251 365.153
663.11 626.269 365.155
663.459 626.246 365.156
663.805 625.955 365.157
664.152 625.678 365.159
664.5 625.642 365.16
664.849 625.57 365.161
665.195 625.32 365.162
665.533 624.14 365.165
688.92 623.832 365.241
689.284 625.36 365.24
689.634 625.438 365.241
689.983 625.44 365.242
690.332 625.459 365.244
690.681 625.453 365.245
691.018 624.148 365.247
661.247 626.292 364.608
661.596 626.341 364.61
661.944 626.242 364.611
662.294 626.3 364.612
662.642 626.244 364.613
662.992 626.273 364.614
663.341 626.264 364.615
663.69 626.221 364.616
664.034 625.775 364.618
664.382 625.651 364.619
664.731 625.643 364.62
665.08 625.659 364.622
665.428 625.487 364.623
688.807 624.319 364.7
689.167 625.446 364.7
689.516 625.445 364.701
689.865 625.452 364.702
690.214 625.459 364.703
690.563 625.455 364.704
690.897 623.901 364.707
661.129 626.33 364.068
661.477 626.295 364.069
661.827 626.314 364.07
662.175 626.237 364.072
662.524 626.266 364.073
662.874 626.277 364.074
663.223 626.271 364.075
663.572 626.248 364.076
663.918 625.935 364.078
664.264 625.633 364.079
664.613 625.644 364.08
664.962 625.653 364.081
665.311 625.669 364.082
665.642 623.814 364.085
688.684 623.834 364.16
689.048 625.373 364.16
689.398 625.449 364.161
689.747 625.453 364.162
690.096 625.449 364.163
690.437 624.646 364.165
661.01 626.327 363.528
661.36 626.346 363.529
661.708 626.275 363.53
662.057 626.265 363.531
662.406 626.254 363.532
662.755 626.284 363.533
663.104 626.253 363.535
663.453 626.253 363.536
663.8 625.988 363.537
664.146 625.65 363.539
664.495 625.637 363.54
664.844 625.663 363.541
665.193 625.648 363.542
665.524 623.814 363.545
687.168 623.769 363.615
687.524 624.416 363.616
687.878 624.899 363.616
688.223 624.566 363.618
688.562 623.514 363.62
688.918 624.16 363.62
689.28 625.462 363.62
689.629 625.456 363.621
689.975 625.219 363.623
690.308 623.496 363.626
660.892 626.328 362.987
661.241 626.324 362.988
661.59 626.316 362.99
661.939 626.258 362.991
662.288 626.28 362.992
662.637 626.273 362.993
662.986 626.267 362.994
663.335 626.253 362.995
663.683 626.12 362.997
664.027 625.646 362.998
664.376 625.65 362.999
664.726 625.652 363.0
665.068 624.948 363.002
686.706 624.26 363.073
687.066 625.394 363.073
687.416 625.465 363.074
687.765 625.459 363.075
688.114 625.457 363.076
688.458 624.97 363.078
689.147 623.984 363.081
689.499 624.313 363.082
689.842 623.663 363.084
660.774 626.349 362.447
661.123 626.349 362.448
661.472 626.278 362.449
661.821 626.286 362.45
662.17 626.275 362.451
662.519 626.305 362.453
662.868 626.25 362.454
663.217 626.252 362.455
663.564 626.037 362.456
663.909 625.65 362.458
664.258 625.652 362.459
664.608 625.678 362.46
664.942 624.138 362.463
686.234 623.777 362.532
686.599 625.475 362.531
686.948 625.473 362.533
687.297 625.466 362.534
687.647 625.467 362.535
687.996 625.461 362.536
688.345 625.456 362.537
688.675 623.511 362.54
660.656 626.358 361.906
661.005 626.328 361.908
661.354 626.31 361.909
661.702 626.265 361.91
662.052 626.304 361.911
662.401 626.277 361.912
662.75 626.278 361.913
663.099 626.259 361.914
663.443 625.811 361.916
663.791 625.64 361.917
664.14 625.665 361.918
664.489 625.661 361.92
664.824 624.219 361.922
686.117 623.94 361.991
686.481 625.479 361.991
686.83 625.472 361.992
687.179 625.458 361.993
687.528 625.47 361.994
687.877 625.455 361.996
688.222 624.982 361.997
660.538 626.368 361.366
660.887 626.352 361.367
661.235 626.294 361.368
661.584 626.293 361.37
661.933 626.29 361.371
662.283 626.303 361.372
662.631 626.26 361.373
662.981 626.271 361.374
663.327 626.041 361.375
663.673 625.654 361.377
664.022 625.654 361.378
664.368 625.36 361.38
664.701 623.742 361.382
686.354 624.583 361.452
686.71 625.308 361.452
687.061 625.464 361.453
687.409 625.373 361.454
687.748 624.326 361.456
688.089 623.514 361.458
660.42 626.381 360.826
660.768 626.327 360.827
661.117 626.296 360.828
661.466 626.294 360.829
661.816 626.33 360.83
662.164 626.278 360.831
662.513 626.28 360.833
662.862 626.276 360.834
663.211 626.268 360.835
663.555 625.711 360.837
663.904 625.673 360.838
664.244 624.781 360.84
686.925 623.686 360.914
660.301 626.369 360.285
660.65 626.328 360.286
660.999 626.292 360.288
661.348 626.325 360.289
661.697 626.297 360.29
662.046 626.299 360.291
662.395 626.278 360.292
662.744 626.281 360.293
663.093 626.256 360.294
663.436 625.674 360.296
663.785 625.671 360.297
664.127 624.873 360.299
660.183 626.354 359.745
660.532 626.314 359.746
660.881 626.302 359.747
661.23 626.304 359.748
661.579 626.323 359.75
661.928 626.29 359.751
662.277 626.285 359.752
662.625 626.225 359.753
662.97 625.82 359.755
663.318 625.678 359.756
663.667 625.701 359.757
664.008 624.776 359.759
660.065 626.388 359.205
660.413 626.292 359.206
660.762 626.299 359.207
661.112 626.333 359.208
661.461 626.296 359.209
661.81 626.297 359.21
662.159 626.305 359.211
662.505 626.032 359.213
662.851 625.673 359.214
663.2 625.692 359.215
663.549 625.666 359.217
663.891 624.952 359.218
659.946 626.351 358.664
660.295 626.314 358.665
660.644 626.321 358.666
660.993 626.307 358.668
661.342 626.315 358.669
661.691 626.3 358.67
662.041 626.304 358.671
662.388 626.101 358.672
662.733 625.678 358.674
663.082 625.68 358.675
663.429 625.447 358.676
663.763 623.908 358.679
659.828 626.35 358.124
660.177 626.326 358.125
660.526 626.318 358.126
660.875 626.321 358.127
661.224 626.304 358.128
661.573 626.306 358.129
661.922 626.309 358.131
662.268 625.923 358.132
662.601 624.334 358.135
662.945 623.758 358.137
659.71 626.346 357.583
660.059 626.323 357.585
660.408 626.333 357.586
660.757 626.309 357.587
661.106 626.309 357.588
661.455 626.321 357.589
661.801 625.954 357.591
662.147 625.701 357.592
662.48 624.007 357.595
659.592 626.347 357.043
659.941 626.334 357.044
660.289 626.31 357.045
660.639 626.316 357.046
660.988 626.316 357.048
661.333 625.91 357.049
661.68 625.708 357.05
662.028 625.557 357.052
659.473 626.355 356.503
659.819 626.037 356.504
660.168 626.03 356.505
660.518 626.12 356.506
660.866 625.94 356.508
661.213 625.712 356.509
661.562 625.721 356.51
661.898 624.409 356.513
659.35 625.791 355.963
659.698 625.738 355.964
660.047 625.752 355.965
660.396 625.711 355.966
660.745 625.726 355.967
661.094 625.715 355.969
661.441 625.466 355.97
661.774 623.846 355.973
659.231 625.778 355.422
659.58 625.74 355.424
659.929 625.713 355.425
660.278 625.716 355.426
660.627 625.72 355.427
660.968 624.828 355.429
661.307 623.85 355.431
659.113 625.754 354.882
659.462 625.73 354.883
659.811 625.717 354.884
660.16 625.715 354.886
660.499 624.673 354.888
658.995 625.751 354.342
659.343 625.724 354.343
659.692 625.712 354.344
660.034 624.918 354.346
658.875 625.662 353.801
659.211 624.275 353.804
659.555 623.785 353.806
688.167 622.386 371.284
688.521 623.039 371.284
688.876 623.682 371.285
689.224 623.6 371.284
689.565 622.616 371.284
691.305 622.032 371.282
687.699 622.64 370.745
688.06 623.944 370.745
688.409 623.937 370.745
688.758 623.923 370.745
689.107 623.928 370.745
689.456 623.921 370.744
689.797 623.013 370.744
690.845 623.091 370.743
691.201 623.913 370.744
691.55 623.819 370.743
691.892 623.004 370.743
687.228 622.397 370.205
687.59 623.863 370.205
687.939 623.948 370.205
688.288 623.933 370.205
688.638 623.93 370.205
688.987 623.927 370.205
689.336 623.919 370.205
689.682 623.592 370.204
690.368 622.203 370.203
690.732 623.916 370.204
691.081 623.896 370.204
691.43 623.913 370.203
691.779 623.909 370.203
692.116 622.433 370.202
686.756 622.073 369.665
687.119 623.701 369.666
687.47 623.959 369.665
687.819 623.938 369.665
688.168 623.939 369.665
688.517 623.923 369.665
688.867 623.989 369.665
689.215 623.912 369.665
689.564 623.905 369.664
689.905 622.935 369.664
690.26 623.58 369.664
690.612 623.901 369.664
690.962 624.068 369.664
691.311 624.051 369.664
691.659 623.89 369.663
692.007 623.819 369.663
692.344 622.35 369.662
669.885 622.798 369.134
670.228 622.129 369.133
686.647 623.463 369.126
687.001 623.958 369.126
687.35 623.932 369.126
687.699 623.949 369.125
688.048 623.995 369.125
688.401 624.423 369.125
688.751 624.514 369.125
689.1 624.493 369.125
689.445 624.067 369.125
689.793 623.907 369.124
690.142 623.897 369.124
690.494 624.264 369.124
690.846 624.508 369.124
691.195 624.509 369.124
691.543 624.362 369.124
691.888 623.93 369.123
692.233 623.408 369.123
669.776 624.097 368.595
670.124 624.037 368.594
670.468 623.394 368.594
670.806 622.125 368.593
686.175 623.143 368.586
686.531 623.969 368.586
686.88 623.95 368.586
687.23 623.954 368.586
687.579 623.945 368.585
687.931 624.381 368.586
688.282 624.527 368.585
688.631 624.524 368.585
688.98 624.522 368.585
689.328 624.406 368.585
689.673 623.902 368.584
690.022 623.933 368.584
690.376 624.496 368.584
690.725 624.509 368.584
691.074 624.506 368.584
691.423 624.498 368.584
691.77 624.16 368.583
692.117 623.9 368.583
692.449 621.942 368.582
669.655 624.105 368.055
670.004 624.038 368.054
670.353 624.031 368.054
670.692 622.907 368.053
685.703 622.825 368.046
686.062 623.976 368.046
686.411 623.957 368.046
686.76 623.944 368.046
687.109 623.945 368.046
687.458 623.935 368.045
687.812 624.427 368.046
688.161 624.512 368.046
688.511 624.514 368.045
688.86 624.507 368.045
689.207 624.367 368.045
689.552 623.897 368.044
689.901 623.884 368.044
690.255 624.427 368.044
690.605 624.482 368.044
690.954 624.49 368.044
691.303 624.494 368.044
691.649 624.108 368.043
691.996 623.9 368.043
692.329 621.943 368.042
693.379 622.347 368.042
693.727 622.179 368.041
669.535 624.099 367.515
669.884 624.051 367.514
670.233 624.017 367.514
670.576 623.31 367.514
685.233 622.745 367.506
685.593 623.985 367.507
685.942 623.964 367.506
686.291 623.954 367.506
686.64 623.951 367.506
686.989 623.934 367.506
687.338 623.932 367.506
687.688 624.063 367.505
688.039 624.264 367.505
688.386 623.983 367.505
688.731 623.565 367.505
689.073 622.687 367.504
689.423 622.848 367.504
689.776 623.32 367.504
690.13 623.899 367.504
690.484 624.414 367.504
690.834 624.491 367.504
691.182 624.408 367.504
691.527 623.912 367.503
691.869 623.067 367.503
692.916 623.045 367.502
693.273 623.976 367.503
693.622 623.917 367.502
693.965 623.265 367.502
694.306 622.343 367.501
669.415 624.121 366.975
669.763 624.028 366.975
670.112 624.026 366.974
670.457 623.538 366.974
684.763 622.672 366.966
685.123 623.988 366.967
685.473 623.979 366.967
685.821 623.963 366.966
686.171 623.963 366.966
686.52 623.943 366.966
686.869 623.94 366.966
687.218 623.936 366.966
687.56 623.195 366.965
687.899 621.981 366.964
689.993 621.937 366.963
690.348 622.576 366.963
690.705 623.538 366.964
691.055 623.6 366.963
691.397 622.799 366.963
691.739 621.923 366.962
692.088 621.969 366.962
692.454 623.869 366.963
692.808 624.508 366.963
693.157 624.503 366.963
693.506 624.415 366.963
693.851 623.987 366.962
694.199 623.848 366.962
694.532 622.012 366.961
669.295 624.107 366.435
669.643 624.051 366.435
669.992 624.008 366.434
670.339 623.713 366.434
684.289 622.18 366.426
684.653 623.91 366.427
685.003 623.995 366.427
685.352 623.976 366.427
685.701 623.959 366.426
686.05 623.952 366.426
686.399 623.943 366.426
686.748 623.934 366.426
687.096 623.769 366.426
691.977 623.02 366.423
692.339 624.497 366.423
692.688 624.495 366.423
693.037 624.502 366.423
693.386 624.519 366.423
693.733 624.301 366.423
694.079 623.926 366.422
694.418 622.759 366.421
669.175 624.147 365.895
669.523 624.036 365.895
669.872 624.033 365.894
670.218 623.698 365.894
670.554 622.129 365.893
684.171 622.428 365.886
684.534 624.004 365.887
684.883 623.989 365.887
685.232 624.003 365.887
685.581 623.96 365.886
685.93 623.954 365.886
686.279 623.946 365.886
686.628 623.947 365.886
686.972 623.37 365.885
691.861 623.546 365.883
692.218 624.493 365.883
692.568 624.494 365.883
692.917 624.508 365.883
693.266 624.515 365.883
693.614 624.446 365.883
693.959 623.92 365.882
694.3 623.012 365.881
669.054 624.115 365.355
669.403 624.074 365.355
669.751 624.013 365.355
670.101 624.021 365.354
670.444 623.385 365.354
684.051 622.416 365.346
684.413 623.974 365.347
684.765 624.225 365.347
685.117 624.566 365.347
685.465 624.527 365.347
685.811 624.089 365.346
686.159 623.954 365.346
686.506 623.71 365.346
686.842 622.153 365.345
691.735 622.81 365.343
692.098 624.488 365.344
692.447 624.5 365.343
692.796 624.502 365.343
693.146 624.502 365.343
693.495 624.525 365.343
693.84 624.019 365.342
694.188 623.932 365.342
694.529 623.02 365.341
668.934 624.108 364.815
669.282 624.056 364.815
669.631 624.041 364.815
669.98 624.003 364.814
670.33 624.035 364.814
670.662 622.127 364.813
683.938 623.261 364.807
684.294 624.067 364.807
684.647 624.542 364.807
684.996 624.559 364.807
685.345 624.553 364.807
685.693 624.407 364.807
686.039 623.962 364.806
686.381 623.202 364.806
691.976 624.282 364.803
692.327 624.495 364.803
692.676 624.499 364.803
693.025 624.505 364.803
693.375 624.52 364.803
693.722 624.31 364.803
694.068 623.923 364.802
694.417 623.933 364.802
694.752 622.344 364.801
668.814 624.127 364.275
669.162 624.052 364.275
669.511 624.038 364.275
669.86 624.029 364.274
670.209 624.013 364.274
670.543 622.284 364.273
683.466 622.924 364.267
683.824 624.002 364.267
684.175 624.242 364.267
684.527 624.564 364.267
684.876 624.563 364.267
685.225 624.562 364.267
685.574 624.525 364.267
685.918 623.954 364.266
686.267 623.966 364.266
686.603 622.406 364.265
691.138 621.979 364.262
691.503 623.863 364.263
691.858 624.496 364.264
692.207 624.493 364.263
692.556 624.5 364.263
692.905 624.509 364.263
693.254 624.511 364.263
693.601 624.308 364.263
693.947 623.93 364.262
694.297 623.94 364.262
694.633 622.425 364.261
668.693 624.106 363.735
669.042 624.052 363.735
669.391 624.034 363.735
669.74 624.013 363.735
670.087 623.792 363.734
683.35 623.497 363.727
683.704 623.993 363.727
684.054 624.18 363.727
684.407 624.569 363.727
684.756 624.568 363.727
685.105 624.559 363.727
685.454 624.507 363.727
685.798 623.961 363.726
686.147 623.971 363.726
686.496 623.888 363.726
686.831 622.321 363.725
691.022 622.507 363.723
691.388 624.502 363.724
691.737 624.503 363.724
692.086 624.491 363.723
692.436 624.512 363.723
692.785 624.508 363.723
693.134 624.513 363.723
693.479 624.099 363.723
693.827 623.933 363.722
694.176 623.941 363.722
694.508 621.928 363.721
668.573 624.128 363.195
668.921 624.05 363.195
669.271 624.042 363.195
669.619 624.012 363.195
669.961 623.159 363.194
683.228 623.252 363.187
683.583 623.989 363.187
683.933 624.091 363.187
684.286 624.572 363.188
684.635 624.56 363.187
684.985 624.559 363.187
685.334 624.549 363.187
685.68 624.289 363.187
686.027 623.966 363.186
686.376 623.968 363.186
686.718 623.15 363.185
690.899 622.193 363.183
691.267 624.392 363.184
691.617 624.493 363.184
691.966 624.498 363.184
692.315 624.506 363.183
692.664 624.508 363.183
693.014 624.519 363.183
693.359 624.14 363.183
693.707 623.929 363.182
694.049 623.098 363.182
668.452 624.087 362.655
668.801 624.084 362.655
669.15 624.026 362.655
669.499 624.028 362.655
669.848 623.943 362.654
670.185 622.525 362.653
683.101 622.514 362.647
683.463 623.99 362.648
683.813 624.055 362.647
684.166 624.568 362.648
684.515 624.574 362.647
684.864 624.561 362.647
685.213 624.55 362.647
685.563 624.556 362.647
685.908 624.182 362.646
686.256 623.978 362.646
686.605 623.974 362.646
686.946 623.061 362.645
691.13 622.401 362.643
691.496 624.455 362.644
691.846 624.503 362.644
692.195 624.506 362.643
692.544 624.505 362.643
692.893 624.526 362.643
693.24 624.288 362.643
693.586 623.919 362.642
693.926 622.841 362.642
668.333 624.133 362.115
668.681 624.048 362.115
669.03 624.082 362.115
669.379 624.022 362.115
669.728 624.026 362.115
670.072 623.387 362.114
683.332 622.756 362.107
683.692 623.988 362.107
684.045 624.5 362.108
684.395 624.574 362.107
684.744 624.562 362.107
685.093 624.562 362.107
685.442 624.557 362.107
685.791 624.529 362.107
686.136 624.077 362.106
686.485 623.971 362.106
686.832 623.808 362.106
689.613 622.379 362.103
689.962 622.375 362.103
691.373 624.095 362.104
691.726 624.502 362.104
692.075 624.506 362.103
692.424 624.519 362.103
692.773 624.511 362.103
693.121 624.372 362.103
693.465 623.834 362.102
693.8 622.186 362.101
668.212 624.105 361.575
668.561 624.098 361.575
668.91 624.04 361.575
669.259 624.054 361.575
669.608 624.028 361.575
669.953 623.556 361.574
683.56 622.673 361.567
683.923 624.287 361.568
684.275 624.562 361.568
684.624 624.56 361.567
684.973 624.564 361.567
685.322 624.563 361.567
685.671 624.561 361.567
686.018 624.342 361.566
686.364 623.967 361.566
686.713 623.895 361.566
688.792 622.141 361.564
689.15 623.117 361.564
689.507 624.025 361.565
689.857 624.122 361.564
690.198 623.234 361.564
690.54 622.451 361.563
690.897 623.363 361.563
691.256 624.504 361.564
691.605 624.504 361.564
691.954 624.505 361.564
692.304 624.526 361.563
692.653 624.508 361.563
692.999 624.206 361.563
693.335 622.685 361.562
668.092 624.119 361.035
668.441 624.079 361.035
668.79 624.083 361.035
669.138 624.043 361.035
669.488 624.039 361.035
669.828 622.997 361.034
683.798 623.729 361.027
684.153 624.424 361.027
684.504 624.565 361.027
684.853 624.567 361.027
685.202 624.56 361.027
685.551 624.565 361.027
685.9 624.542 361.027
686.247 624.331 361.026
686.595 624.178 361.026
686.933 622.891 361.025
687.285 623.291 361.025
687.636 623.482 361.025
687.981 622.995 361.025
688.338 623.86 361.025
688.691 624.331 361.025
689.041 624.445 361.025
689.391 624.535 361.025
689.74 624.531 361.025
690.089 624.483 361.025
690.434 624.059 361.024
690.787 624.492 361.024
691.136 624.504 361.024
691.485 624.51 361.024
691.834 624.508 361.024
692.183 624.512 361.023
692.532 624.486 361.023
692.877 623.937 361.023
693.212 622.35 361.022
667.971 624.114 360.495
668.321 624.112 360.495
668.669 624.062 360.495
669.018 624.068 360.495
669.367 624.034 360.495
669.702 622.376 360.494
683.667 622.508 360.487
684.031 624.181 360.487
684.383 624.559 360.487
684.732 624.565 360.487
685.081 624.555 360.487
685.431 624.565 360.487
685.78 624.56 360.487
686.129 624.552 360.487
686.478 624.558 360.486
686.826 624.466 360.486
687.176 624.497 360.486
687.525 624.55 360.486
687.874 624.537 360.486
688.223 624.529 360.485
688.572 624.526 360.485
688.921 624.529 360.485
689.27 624.523 360.485
689.619 624.517 360.485
689.969 624.517 360.485
690.317 624.442 360.484
690.667 624.521 360.484
691.016 624.506 360.484
691.365 624.515 360.484
691.714 624.508 360.484
692.062 624.432 360.483
692.408 623.972 360.483
692.748 623.01 360.482
667.852 624.151 359.956
668.2 624.086 359.955
668.549 624.117 359.955
668.898 624.054 359.955
669.247 624.063 359.955
669.585 622.764 359.954
683.902 623.184 359.947
684.262 624.479 359.947
684.612 624.549 359.947
684.961 624.56 359.947
685.31 624.555 359.947
685.659 624.553 359.947
686.008 624.554 359.947
686.357 624.542 359.946
686.707 624.548 359.946
687.056 624.552 359.946
687.405 624.546 359.946
687.754 624.542 359.946
688.103 624.544 359.946
688.452 624.534 359.945
688.801 624.531 359.945
689.15 624.518 359.945
689.499 624.515 359.945
689.848 624.511 359.945
690.196 624.364 359.944
690.543 624.144 359.944
690.895 624.504 359.944
691.245 624.515 359.944
691.59 624.07 359.943
691.933 623.423 359.943
692.272 622.167 359.942
667.733 624.396 359.416
668.081 624.284 359.416
668.43 624.217 359.415
668.778 624.107 359.415
669.127 624.045 359.415
669.465 622.753 359.414
684.123 622.256 359.406
684.485 623.717 359.407
684.838 624.167 359.407
685.189 624.495 359.407
685.539 624.552 359.407
685.888 624.548 359.407
686.237 624.548 359.406
686.586 624.549 359.406
686.935 624.536 359.406
687.284 624.54 359.406
687.633 624.534 359.406
687.983 624.531 359.406
688.332 624.53 359.405
688.681 624.529 359.405
689.03 624.529 359.405
689.379 624.525 359.405
689.728 624.494 359.405
690.073 623.991 359.404
690.416 623.308 359.404
690.753 621.985 359.403
691.103 621.982 359.402
667.616 624.711 358.876
667.965 624.694 358.876
668.314 624.681 358.876
668.661 624.416 358.875
669.007 624.079 358.875
669.347 623.007 358.874
684.353 622.419 358.866
684.715 623.867 358.867
685.066 624.165 358.867
685.419 624.54 358.867
685.768 624.542 358.867
686.117 624.547 358.867
686.466 624.549 358.866
686.815 624.551 358.866
687.164 624.54 358.866
687.513 624.531 358.866
687.862 624.534 358.866
688.211 624.524 358.865
688.56 624.521 358.865
688.909 624.517 358.865
689.259 624.518 358.865
689.604 624.15 358.865
689.947 623.422 358.864
690.286 622.218 358.863
667.496 624.727 358.336
667.844 624.689 358.336
668.194 624.696 358.336
668.542 624.59 358.335
668.886 624.058 358.335
669.222 622.545 358.334
684.58 622.15 358.326
684.935 622.822 358.326
685.292 623.788 358.327
685.645 624.269 358.327
685.994 624.299 358.326
686.345 624.461 358.326
686.694 624.505 358.326
687.044 624.531 358.326
687.393 624.502 358.326
687.742 624.503 358.326
688.09 624.377 358.325
688.438 624.307 358.325
688.786 624.153 358.325
689.134 624.011 358.325
689.477 623.354 358.324
689.815 622.059 358.323
667.375 624.717 357.796
667.724 624.701 357.796
668.073 624.684 357.796
668.421 624.475 357.795
668.761 623.518 357.795
685.508 622.308 357.785
685.862 622.846 357.786
686.21 622.791 357.785
686.563 623.203 357.785
686.919 623.993 357.786
687.267 623.918 357.786
687.616 623.917 357.785
687.965 623.837 357.785
688.313 623.751 357.785
688.659 623.348 357.785
689.002 622.623 357.784
667.255 624.731 357.256
667.604 624.693 357.256
667.952 624.556 357.256
668.297 624.126 357.255
668.632 622.391 357.254
686.785 622.398 357.245
687.133 622.235 357.245
687.481 622.151 357.244
667.133 624.546 356.716
667.481 624.432 356.716
667.828 624.131 356.716
668.177 624.082 356.715
668.509 622.153 356.714
667.01 624.14 356.176
667.358 624.108 356.176
667.707 624.093 356.176
668.046 622.885 356.175
666.889 624.141 355.636
667.238 624.105 355.636
667.582 623.536 355.635
666.769 624.127 355.096
667.116 623.872 355.096
667.45 622.164 355.095
666.644 623.646 354.556
666.982 622.331 354.555
689.096 622.576 372.457
689.452 623.294 372.456
689.798 622.972 372.456
690.135 621.665 372.457
687.92 621.769 371.92
688.626 622.583 371.918
688.985 623.63 371.916
689.335 623.641 371.916
689.684 623.626 371.915
690.025 622.803 371.916
693.156 621.636 371.912
693.509 622.117 371.911
693.858 622.038 371.911
687.105 622.108 371.381
687.466 623.358 371.379
687.818 623.68 371.378
688.164 623.421 371.378
688.511 623.152 371.377
688.865 623.643 371.376
689.214 623.628 371.376
689.563 623.628 371.375
689.912 623.616 371.375
690.258 623.363 371.375
690.593 621.821 371.376
693.049 623.108 371.371
693.402 623.579 371.37
693.752 623.595 371.369
694.095 622.937 371.369
694.434 621.949 371.37
686.638 622.445 370.841
686.998 623.602 370.839
687.348 623.672 370.839
687.697 623.686 370.838
688.046 623.648 370.838
688.389 623.081 370.838
688.743 623.561 370.837
689.093 623.639 370.836
689.442 623.612 370.836
689.791 623.617 370.835
690.14 623.601 370.835
690.478 622.477 370.835
692.567 621.801 370.833
692.932 623.576 370.83
693.282 623.588 370.83
693.631 623.582 370.829
693.98 623.585 370.829
694.329 623.6 370.828
694.667 622.446 370.829
686.167 622.372 370.302
686.529 623.683 370.3
686.878 623.692 370.299
687.227 623.682 370.299
687.576 623.667 370.298
687.925 623.655 370.298
688.266 622.757 370.298
688.615 622.753 370.298
688.975 623.896 370.296
689.322 623.739 370.296
689.672 623.76 370.295
690.02 623.685 370.295
690.36 622.708 370.295
692.448 622.042 370.293
692.812 623.59 370.29
693.161 623.588 370.29
693.51 623.591 370.289
693.859 623.595 370.289
694.208 623.58 370.288
694.557 623.597 370.288
694.904 623.349 370.288
695.238 621.782 370.289
685.342 621.709 369.764
685.704 623.051 369.762
686.059 623.696 369.76
686.408 623.701 369.76
686.757 623.677 369.759
687.106 623.677 369.759
687.456 623.723 369.758
687.808 624.041 369.757
688.157 624.019 369.757
688.508 624.254 369.756
688.857 624.234 369.756
689.206 624.237 369.755
689.555 624.224 369.755
689.904 624.201 369.754
690.247 623.51 369.754
690.58 621.819 369.756
691.985 622.773 369.753
692.342 623.587 369.751
692.691 623.587 369.751
693.04 623.591 369.75
693.389 623.583 369.75
693.738 623.595 369.749
694.087 623.581 369.749
694.437 623.592 369.748
694.786 623.605 369.747
695.131 623.178 369.747
695.465 621.612 369.749
685.232 622.887 369.223
685.589 623.717 369.221
685.938 623.709 369.221
686.287 623.677 369.22
686.636 623.688 369.22
686.986 623.702 369.219
687.339 624.179 369.218
687.689 624.255 369.217
688.038 624.263 369.217
688.387 624.239 369.216
688.736 624.256 369.216
689.085 624.229 369.215
689.434 624.238 369.215
689.783 624.211 369.214
690.132 624.208 369.214
690.476 623.648 369.214
690.812 622.204 369.215
691.505 621.727 369.215
691.872 623.587 369.212
692.221 623.581 369.211
692.57 623.584 369.211
692.919 623.585 369.21
693.268 623.595 369.21
693.617 623.584 369.209
693.967 623.589 369.209
694.316 623.595 369.208
694.665 623.586 369.208
695.014 623.605 369.207
695.348 622.025 369.209
684.755 622.135 368.684
685.119 623.644 368.682
685.469 623.726 368.681
685.817 623.697 368.681
686.166 623.682 368.68
686.517 623.822 368.68
686.87 624.251 368.679
687.219 624.27 368.678
687.568 624.258 368.678
687.917 624.26 368.677
688.266 624.241 368.677
688.615 624.216 368.676
688.964 624.24 368.676
689.313 624.21 368.675
689.663 624.22 368.674
690.012 624.214 368.674
690.361 624.212 368.673
690.709 624.106 368.673
691.385 621.839 368.675
691.751 623.585 368.672
692.1 623.609 368.672
692.45 623.687 368.671
692.8 623.731 368.67
693.149 623.769 368.67
693.498 623.741 368.669
693.846 623.581 368.669
694.195 623.59 368.668
694.544 623.604 368.668
694.893 623.589 368.667
695.233 622.608 368.668
684.282 621.8 368.145
684.649 623.654 368.143
684.999 623.726 368.142
685.348 623.714 368.142
685.697 623.784 368.141
686.048 623.978 368.14
686.4 624.25 368.139
686.749 624.281 368.139
687.098 624.249 368.138
687.447 624.261 368.138
687.796 624.249 368.137
688.146 624.244 368.137
688.495 624.235 368.136
688.844 624.223 368.136
689.193 624.222 368.135
689.542 624.202 368.135
689.891 624.211 368.134
690.24 624.205 368.134
690.589 624.203 368.133
690.919 622.203 368.135
691.266 621.96 368.135
691.632 623.812 368.132
691.985 624.192 368.131
692.334 624.19 368.13
692.683 624.19 368.13
693.033 624.195 368.129
693.382 624.195 368.129
693.729 623.981 368.129
694.075 623.682 368.128
694.423 623.59 368.128
694.772 623.593 368.128
695.12 623.439 368.127
695.452 621.611 368.129
684.173 622.984 367.604
684.529 623.736 367.603
684.878 623.726 367.602
685.228 623.815 367.602
685.581 624.278 367.601
685.93 624.284 367.6
686.28 624.294 367.599
686.628 624.248 367.599
686.977 624.253 367.598
687.326 624.239 367.598
687.676 624.24 367.597
688.024 624.217 367.597
688.372 624.045 367.597
688.718 623.765 367.596
689.071 624.176 367.595
689.421 624.222 367.595
689.77 624.204 367.594
690.119 624.205 367.594
690.468 624.196 367.593
690.796 621.993 367.595
691.142 621.624 367.595
691.514 624.105 367.592
691.864 624.19 367.591
692.214 624.203 367.591
692.563 624.195 367.59
692.912 624.191 367.59
693.261 624.2 367.589
693.61 624.189 367.589
693.959 624.2 367.588
694.307 624.062 367.588
694.652 623.617 367.588
695.001 623.604 367.587
695.344 622.935 367.587
683.699 622.556 367.065
684.059 623.741 367.063
684.408 623.747 367.063
684.757 623.738 367.062
685.111 624.187 367.061
685.461 624.286 367.061
685.81 624.298 367.06
686.159 624.255 367.06
686.508 624.268 367.059
686.857 624.236 367.059
687.206 624.255 367.058
687.555 624.227 367.058
687.902 624.076 367.057
688.248 623.669 367.057
688.596 623.594 367.057
688.947 623.828 367.056
689.3 624.185 367.055
689.649 624.18 367.055
689.995 623.868 367.054
690.332 622.619 367.055
691.03 622.583 367.054
691.395 624.2 367.052
691.744 624.195 367.051
692.093 624.194 367.051
692.442 624.193 367.05
692.791 624.191 367.05
693.14 624.188 367.049
693.489 624.195 367.049
693.838 624.203 367.048
694.188 624.203 367.048
694.534 623.934 367.048
694.88 623.596 367.047
695.226 623.267 367.047
683.586 623.398 366.525
683.938 623.746 366.524
684.287 623.719 366.523
684.64 624.081 366.522
684.991 624.291 366.521
685.34 624.31 366.521
685.689 624.258 366.52
686.038 624.27 366.52
686.387 624.237 366.519
686.735 624.178 366.519
687.076 623.313 366.519
687.413 622.074 366.52
688.119 622.87 366.518
688.475 623.585 366.517
688.823 623.505 366.517
689.159 622.04 366.518
689.506 621.894 366.517
690.206 622.056 366.516
690.567 623.267 366.514
690.922 623.883 366.513
691.274 624.21 366.512
691.623 624.205 366.512
691.972 624.2 366.511
692.319 623.971 366.511
692.67 624.138 366.51
693.019 624.189 366.509
693.368 624.194 366.509
693.717 624.197 366.508
694.067 624.202 366.508
694.414 624.01 366.508
694.759 623.594 366.508
695.103 623.022 366.508
683.467 623.653 365.984
683.817 623.738 365.984
684.168 623.875 365.983
684.521 624.28 365.982
684.87 624.311 365.982
685.219 624.289 365.981
685.568 624.29 365.981
685.917 624.25 365.98
686.266 624.253 365.98
686.608 623.545 365.98
686.947 622.493 365.981
687.641 621.998 365.98
688.005 623.588 365.978
688.354 623.587 365.977
688.703 623.584 365.977
689.043 622.623 365.977
689.737 622.14 365.977
690.099 623.51 365.975
690.449 623.595 365.974
690.8 623.806 365.973
691.153 624.193 365.972
691.502 624.206 365.972
691.851 624.199 365.971
692.196 623.805 365.971
692.548 624.095 365.97
692.898 624.191 365.97
693.247 624.183 365.969
693.597 624.192 365.969
693.946 624.203 365.968
694.293 623.973 365.968
694.638 623.597 365.968
694.987 623.597 365.967
695.324 622.269 365.968
682.982 621.974 365.447
683.347 623.73 365.445
683.696 623.733 365.444
684.05 624.212 365.443
684.4 624.31 365.442
684.749 624.29 365.442
685.098 624.3 365.441
685.447 624.258 365.441
685.796 624.25 365.44
686.145 624.23 365.44
686.487 623.536 365.44
686.821 621.938 365.441
687.172 622.084 365.441
687.532 623.283 365.439
687.884 623.594 365.438
688.234 623.591 365.437
688.583 623.588 365.437
688.931 623.506 365.436
689.277 623.184 365.436
689.63 623.588 365.435
689.979 623.594 365.435
690.328 623.597 365.434
690.677 623.601 365.434
691.03 623.949 365.433
691.381 624.204 365.432
691.73 624.205 365.431
692.079 624.192 365.431
692.428 624.189 365.43
692.778 624.188 365.43
693.127 624.188 365.429
693.476 624.198 365.429
693.825 624.205 365.428
694.174 624.199 365.428
694.52 623.832 365.428
694.867 623.593 365.427
695.216 623.6 365.427
695.557 622.775 365.427
682.862 622.14 364.907
683.227 623.725 364.905
683.576 623.728 364.904
683.929 624.203 364.903
684.279 624.31 364.902
684.628 624.305 364.902
684.977 624.274 364.901
685.326 624.265 364.901
685.675 624.24 364.9
686.024 624.24 364.9
686.365 623.402 364.9
686.706 622.464 364.901
687.065 623.603 364.899
687.415 623.599 364.899
687.764 623.597 364.898
688.113 623.594 364.898
688.462 623.595 364.897
688.811 623.595 364.896
689.16 623.59 364.896
689.509 623.595 364.895
689.858 623.596 364.895
690.207 623.604 364.894
690.557 623.61 364.894
690.908 623.814 364.893
691.261 624.215 364.892
691.61 624.208 364.892
691.959 624.203 364.891
692.308 624.188 364.891
692.657 624.183 364.89
693.006 624.19 364.889
693.355 624.194 364.889
693.704 624.195 364.888
694.053 624.195 364.888
694.402 624.161 364.887
694.746 623.614 364.888
695.095 623.609 364.887
695.444 623.599 364.887
695.779 622.101 364.888
683.105 623.643 364.365
683.455 623.744 364.364
683.808 624.171 364.363
684.159 624.313 364.363
684.508 624.311 364.362
684.857 624.286 364.362
685.206 624.27 364.361
685.554 624.257 364.361
685.903 624.23 364.36
686.247 623.677 364.36
686.596 623.617 364.36
686.945 623.61 364.359
687.294 623.605 364.359
687.643 623.604 364.358
687.992 623.602 364.358
688.341 623.603 364.357
688.69 623.606 364.357
689.039 623.597 364.356
689.388 623.602 364.356
689.737 623.593 364.355
690.087 623.601 364.355
690.436 623.607 364.354
690.79 624.142 364.353
691.14 624.217 364.352
691.489 624.219 364.352
691.838 624.202 364.351
692.187 624.189 364.351
692.536 624.19 364.35
692.885 624.188 364.35
693.234 624.193 364.349
693.583 624.189 364.349
693.932 624.202 364.348
694.282 624.206 364.348
694.628 623.972 364.347
694.974 623.595 364.347
695.323 623.604 364.347
695.663 622.607 364.347
682.985 623.718 363.825
683.334 623.734 363.825
683.687 624.167 363.824
684.038 624.311 363.823
684.387 624.308 363.822
684.736 624.277 363.822
685.085 624.273 363.821
685.433 624.241 363.821
685.783 624.252 363.82
686.119 622.949 363.821
686.475 623.618 363.82
686.824 623.608 363.819
687.173 623.609 363.819
687.522 623.604 363.818
687.871 623.61 363.818
688.22 623.609 363.817
688.569 623.604 363.817
688.919 623.617 363.816
689.268 623.612 363.816
689.617 623.62 363.815
689.966 623.616 363.815
690.316 623.716 363.814
690.67 624.218 363.813
691.019 624.228 363.812
691.368 624.226 363.812
691.717 624.207 363.811
692.066 624.199 363.811
692.415 624.187 363.81
692.764 624.189 363.81
693.113 624.186 363.809
693.462 624.191 363.809
693.812 624.201 363.808
694.161 624.202 363.808
694.509 624.142 363.807
694.853 623.581 363.807
695.202 623.596 363.807
695.545 622.933 363.807
682.864 623.716 363.285
683.213 623.733 363.285
683.565 624.023 363.284
683.917 624.312 363.283
684.266 624.295 363.283
684.615 624.285 363.282
684.964 624.261 363.281
685.313 624.267 363.281
685.66 624.093 363.281
685.99 622.015 363.283
686.352 623.455 363.28
686.703 623.614 363.28
687.052 623.61 363.279
687.401 623.615 363.279
687.75 623.614 363.278
688.099 623.608 363.278
688.449 623.608 363.277
688.798 623.609 363.277
689.147 623.613 363.276
689.496 623.616 363.275
689.845 623.621 363.275
690.195 623.688 363.274
690.549 624.227 363.273
690.898 624.237 363.273
691.247 624.224 363.272
691.596 624.213 363.272
691.945 624.184 363.271
692.294 624.196 363.271
692.643 624.19 363.27
692.992 624.186 363.27
693.342 624.196 363.269
693.691 624.193 363.268
694.04 624.188 363.268
694.388 624.048 363.268
694.732 623.592 363.268
695.081 623.592 363.267
695.427 623.255 363.267
682.74 623.384 362.746
683.092 623.73 362.745
683.443 623.914 362.744
683.796 624.311 362.743
684.145 624.322 362.743
684.494 624.285 362.742
684.843 624.271 362.742
685.192 624.244 362.741
685.54 624.121 362.741
685.884 623.56 362.741
686.229 623.219 362.741
686.582 623.615 362.74
686.931 623.614 362.739
687.281 623.618 362.739
687.629 623.533 362.738
687.974 623.14 362.738
688.318 622.561 362.738
688.676 623.464 362.737
689.026 623.62 362.736
689.375 623.621 362.736
689.724 623.64 362.735
690.074 623.656 362.735
690.428 624.239 362.733
690.777 624.236 362.733
691.126 624.216 362.732
691.475 624.203 362.732
691.824 624.188 362.731
692.173 624.176 362.731
692.523 624.183 362.73
692.872 624.187 362.73
693.221 624.195 362.729
693.57 624.189 362.729
693.919 624.195 362.728
694.267 624.063 362.728
694.612 623.6 362.728
694.961 623.601 362.727
695.304 623.006 362.727
682.613 622.716 362.207
682.971 623.724 362.205
683.323 624.019 362.204
683.675 624.311 362.203
684.024 624.288 362.203
684.373 624.295 362.202
684.722 624.253 362.202
685.071 624.263 362.201
685.42 624.251 362.201
685.766 623.842 362.201
686.099 622.257 362.202
686.451 622.492 362.201
686.799 622.407 362.201
687.144 621.92 362.201
688.551 623.055 362.198
688.905 623.623 362.196
689.255 623.628 362.196
689.604 623.635 362.195
689.953 623.645 362.195
690.306 624.053 362.194
690.657 624.248 362.193
691.006 624.228 362.192
691.355 624.205 362.192
691.704 624.192 362.191
692.053 624.193 362.191
692.402 624.186 362.19
692.751 624.183 362.19
693.1 624.177 362.189
693.449 624.185 362.189
693.798 624.206 362.188
694.145 623.921 362.188
694.491 623.588 362.188
694.84 623.586 362.187
695.178 622.428 362.188
682.484 621.889 361.668
682.85 623.623 361.665
683.201 623.877 361.665
683.554 624.294 361.664
683.904 624.316 361.663
684.253 624.289 361.663
684.602 624.288 361.662
684.95 624.257 361.661
685.299 624.247 361.661
685.648 624.226 361.66
685.986 622.98 361.661
686.323 621.773 361.662
687.369 621.653 361.661
687.722 621.987 361.66
688.074 622.299 361.659
688.435 623.617 361.657
688.785 623.625 361.657
689.134 623.623 361.656
689.483 623.64 361.655
689.832 623.679 361.655
690.185 624.079 361.654
690.536 624.24 361.653
690.885 624.211 361.653
691.234 624.197 361.652
691.583 624.189 361.652
691.932 624.191 361.651
692.281 624.19 361.651
692.63 624.204 361.65
692.979 624.183 361.65
693.328 624.189 361.649
693.677 624.192 361.648
694.022 623.662 361.649
694.37 623.572 361.648
694.716 623.251 361.648
682.722 622.872 361.126
683.079 623.703 361.125
683.432 624.112 361.124
683.782 624.279 361.123
684.132 624.295 361.123
684.481 624.269 361.122
684.83 624.25 361.122
685.179 624.255 361.121
685.528 624.235 361.121
685.877 624.254 361.12
686.219 623.508 361.121
686.553 621.903 361.122
687.261 622.963 361.12
687.615 623.44 361.118
687.965 623.595 361.118
688.315 623.621 361.117
688.664 623.614 361.117
689.013 623.631 361.116
689.363 623.699 361.116
689.716 624.172 361.114
690.066 624.244 361.114
690.415 624.222 361.113
690.764 624.201 361.113
691.113 624.193 361.112
691.462 624.186 361.112
691.811 624.182 361.111
692.16 624.185 361.111
692.509 624.181 361.11
692.858 624.185 361.11
693.208 624.192 361.109
693.556 624.176 361.109
693.9 623.617 361.109
694.246 623.251 361.109
694.581 621.775 361.11
682.591 621.805 360.588
682.957 623.616 360.585
683.31 623.974 360.584
683.662 624.292 360.583
684.011 624.288 360.583
684.36 624.287 360.582
684.709 624.276 360.582
685.058 624.248 360.581
685.407 624.254 360.581
685.756 624.258 360.58
686.104 624.172 360.58
686.448 623.644 360.58
686.797 623.541 360.58
687.148 623.785 360.579
687.499 624.022 360.578
687.849 624.042 360.577
688.195 623.754 360.577
688.543 623.607 360.577
688.892 623.602 360.576
689.246 624.167 360.575
689.596 624.231 360.575
689.945 624.228 360.574
690.294 624.209 360.574
690.643 624.21 360.573
690.992 624.206 360.572
691.341 624.194 360.572
691.69 624.193 360.571
692.039 624.185 360.571
692.388 624.181 360.57
692.738 624.184 360.57
693.087 624.184 360.569
693.432 623.81 360.569
693.778 623.495 360.569
682.822 622.13 360.047
683.182 623.265 360.045
683.54 624.203 360.044
683.89 624.274 360.043
684.239 624.286 360.043
684.588 624.271 360.042
684.937 624.283 360.042
685.286 624.247 360.041
685.635 624.252 360.04
685.984 624.234 360.04
686.328 623.679 360.04
686.679 623.853 360.039
687.032 624.25 360.038
687.381 624.234 360.038
687.73 624.239 360.037
688.079 624.208 360.037
688.422 623.621 360.037
688.772 623.687 360.036
689.126 624.219 360.035
689.475 624.223 360.035
689.824 624.216 360.034
690.173 624.205 360.034
690.522 624.204 360.033
690.871 624.195 360.033
691.22 624.187 360.032
691.57 624.196 360.032
691.919 624.181 360.031
692.268 624.183 360.031
692.617 624.182 360.03
692.962 623.794 360.03
693.309 623.576 360.03
693.654 623.077 360.03
683.405 622.675 359.506
683.765 623.853 359.504
684.118 624.213 359.503
684.467 624.279 359.502
684.816 624.253 359.502
685.166 624.274 359.501
685.515 624.261 359.501
685.864 624.249 359.5
686.212 624.227 359.5
686.561 624.221 359.499
686.911 624.228 359.499
687.26 624.235 359.498
687.609 624.233 359.498
687.958 624.236 359.497
688.304 623.942 359.497
688.652 623.79 359.496
689.005 624.235 359.495
689.354 624.219 359.495
689.703 624.211 359.494
690.052 624.199 359.494
690.401 624.191 359.493
690.75 624.19 359.493
691.1 624.185 359.492
691.449 624.184 359.492
691.798 624.174 359.491
692.147 624.179 359.491
692.492 623.797 359.491
692.839 623.581 359.49
693.188 623.492 359.49
693.523 622.023 359.491
683.276 621.795 358.967
683.64 623.425 358.964
683.994 623.956 358.963
684.346 624.253 358.962
684.695 624.264 358.962
685.045 624.256 358.961
685.394 624.253 358.961
685.743 624.259 358.96
686.092 624.238 358.96
686.441 624.254 358.959
686.79 624.243 358.959
687.139 624.244 358.958
687.488 624.235 358.958
687.837 624.228 358.957
688.186 624.222 358.957
688.535 624.22 358.956
688.884 624.213 358.956
689.234 624.257 358.955
689.582 624.204 358.955
689.932 624.204 358.954
690.281 624.199 358.954
690.63 624.181 358.953
690.979 624.179 358.953
691.328 624.177 358.952
691.677 624.174 358.952
692.023 623.815 358.951
692.369 623.575 358.951
692.718 623.483 358.951
693.052 621.945 358.952
683.505 621.873 358.427
683.865 623.008 358.425
684.222 623.901 358.423
684.573 624.064 358.422
684.924 624.253 358.422
685.273 624.25 358.421
685.622 624.24 358.421
685.971 624.245 358.42
686.32 624.236 358.419
686.669 624.24 358.419
687.018 624.243 358.418
687.367 624.224 358.418
687.716 624.233 358.417
688.065 624.222 358.417
688.414 624.212 358.416
688.763 624.208 358.416
689.112 624.201 358.415
689.462 624.197 358.415
689.811 624.19 358.414
690.16 624.186 358.414
690.509 624.18 358.413
690.858 624.175 358.413
691.207 624.143 358.412
691.551 623.691 358.412
691.899 623.568 358.412
692.245 623.243 358.412
692.581 621.867 358.413
684.087 622.353 357.885
684.447 623.567 357.883
684.799 623.816 357.882
685.15 624.029 357.881
685.501 624.216 357.881
685.85 624.236 357.88
686.199 624.229 357.88
686.548 624.232 357.879
686.897 624.227 357.879
687.246 624.22 357.878
687.595 624.22 357.878
687.945 624.217 357.877
688.294 624.215 357.877
688.643 624.2 357.876
688.992 624.194 357.875
689.341 624.192 357.875
689.69 624.184 357.874
690.039 624.184 357.874
690.388 624.176 357.873
690.737 624.152 357.873
691.082 623.718 357.873
691.429 623.567 357.873
691.773 623.001 357.873
692.111 621.789 357.874
684.312 622.026 357.345
684.668 622.748 357.344
685.024 623.534 357.342
685.376 623.753 357.341
685.726 623.917 357.341
686.077 624.105 357.34
686.427 624.223 357.339
686.776 624.22 357.339
687.125 624.219 357.338
687.475 624.206 357.338
687.824 624.209 357.337
688.173 624.203 357.337
688.522 624.2 357.336
688.871 624.194 357.336
689.22 624.186 357.335
689.569 624.179 357.335
689.916 623.978 357.334
690.263 623.737 357.334
690.611 623.635 357.334
690.952 622.761 357.334
691.29 621.634 357.335
684.889 621.968 356.804
685.245 622.691 356.803
685.6 623.308 356.802
685.951 623.539 356.801
686.298 623.318 356.801
686.649 623.479 356.8
686.996 623.266 356.8
687.343 623.052 356.799
687.696 623.443 356.798
688.05 624.024 356.797
688.399 624.012 356.797
688.745 623.683 356.796
689.089 623.135 356.797
689.438 623.14 356.796
689.782 622.609 356.796
690.128 622.207 356.796
690.472 621.721 356.796
687.907 621.72 356.26
688.974 622.352 372.921
689.33 623.01 372.92
689.675 622.586 372.92
690.015 621.687 372.92
690.365 621.764 372.92
690.718 622.176 372.92
691.067 622.159 372.92
691.411 621.673 372.92
687.804 622.122 372.381
688.166 623.358 372.381
688.517 623.508 372.381
688.867 623.67 372.38
689.216 623.646 372.38
689.565 623.645 372.38
689.914 623.645 372.38
690.263 623.626 372.38
690.613 623.632 372.38
690.962 623.619 372.38
691.306 623.126 372.379
691.642 621.909 372.379
687.338 622.393 371.841
687.699 623.585 371.841
688.049 623.717 371.841
688.398 623.666 371.841
688.747 623.667 371.84
689.096 623.647 371.84
689.445 623.672 371.84
689.794 623.616 371.84
690.143 623.636 371.84
690.492 623.628 371.84
690.841 623.613 371.84
691.19 623.623 371.839
691.539 623.606 371.839
691.883 623.116 371.839
692.219 621.743 371.839
686.518 622.31 371.302
686.875 623.065 371.301
687.231 623.72 371.301
687.58 623.703 371.301
687.929 623.682 371.301
688.278 623.658 371.301
688.627 623.658 371.301
688.976 623.67 371.3
689.325 623.633 371.3
689.674 623.649 371.3
690.023 623.623 371.3
690.372 623.627 371.3
690.721 623.621 371.3
691.07 623.615 371.299
691.419 623.604 371.299
691.768 623.598 371.299
692.117 623.602 371.299
692.462 623.191 371.299
692.802 622.3 371.299
685.696 621.902 370.762
686.056 622.989 370.762
686.413 623.726 370.761
686.762 623.727 370.761
687.111 623.706 370.761
687.46 623.699 370.761
687.809 623.699 370.761
