VERSION 0.7
FIELDS x y z
SIZE 4 4 4
TYPE F F F
COUNT 1 1 1
WIDTH 2022
HEIGHT 1
VIEWPOINT 0.0 0.0 0.0 1.0 0.0 0.0 0.0
POINTS 2022
DATA ascii
638.501 744.855 369.788
638.092 744.903 369.787
637.684 744.952 369.787
637.274 744.913 369.786
636.865 744.93 369.785
640.948 743.382 369.225
640.547 744.799 369.228
640.138 744.852 369.228
639.727 744.413 369.226
639.32 744.855 369.226
638.911 744.848 369.226
638.502 744.889 369.225
638.095 745.151 369.225
637.686 745.168 369.225
637.276 745.166 369.224
636.867 745.155 369.223
640.954 744.166 368.665
640.548 744.86 368.666
640.139 744.876 368.665
639.73 744.873 368.664
639.321 744.869 368.664
638.912 744.9 368.663
638.505 745.144 368.663
638.096 745.175 368.663
637.687 745.184 368.662
637.277 745.187 368.661
636.869 745.256 368.661
640.953 743.944 368.102
640.549 744.86 368.103
640.14 744.872 368.103
639.731 744.877 368.102
639.322 744.861 368.101
638.914 745.011 368.101
638.506 745.175 368.101
638.096 745.18 368.1
637.687 745.158 368.1
637.278 745.211 368.099
636.869 745.231 368.098
640.952 743.615 367.538
640.55 744.875 367.541
640.141 744.861 367.54
639.732 744.885 367.54
639.323 744.844 367.539
638.915 745.013 367.539
638.507 745.194 367.538
638.097 745.153 367.538
637.688 745.185 367.537
637.279 745.195 367.536
636.87 745.24 367.536
641.364 743.932 366.977
640.96 744.793 366.979
640.551 744.857 366.978
640.142 744.903 366.978
639.733 744.859 366.977
639.324 744.877 366.976
638.916 745.059 366.976
638.507 745.17 366.976
638.098 745.191 366.975
637.689 745.168 366.975
637.28 745.208 366.974
636.871 745.222 366.973
641.774 743.931 366.415
641.37 744.88 366.417
640.961 744.862 366.416
640.552 744.885 366.416
640.143 744.867 366.415
639.734 744.894 366.415
639.324 744.835 366.414
638.917 745.049 366.414
638.508 745.186 366.413
638.099 745.167 366.413
637.69 745.195 366.412
637.281 745.198 366.411
636.872 745.238 366.411
671.224 742.992 365.896
670.817 743.233 365.896
670.405 742.835 365.894
642.182 743.542 365.853
641.78 744.868 365.855
641.371 744.871 365.854
640.962 744.87 365.854
640.553 744.849 365.853
640.144 744.896 365.853
639.734 744.86 365.852
639.326 744.981 365.852
638.918 745.194 365.851
638.509 745.152 365.851
638.1 745.183 365.85
637.691 745.181 365.85
637.282 745.225 365.849
636.873 745.248 365.848
671.635 743.155 365.334
671.235 744.676 365.337
670.826 744.749 365.337
670.414 744.276 365.335
642.186 744.172 365.292
641.781 744.865 365.293
641.372 744.88 365.292
640.963 744.851 365.291
640.554 744.87 365.291
640.144 744.856 365.29
639.736 744.903 365.29
639.328 745.089 365.289
638.919 745.174 365.289
638.51 745.189 365.288
638.101 745.177 365.288
637.692 745.186 365.287
637.283 745.232 365.287
636.874 745.23 365.286
671.639 743.639 364.773
671.236 744.759 364.775
670.827 744.757 364.774
670.418 744.738 364.774
669.998 742.84 364.769
642.185 743.848 364.728
641.782 744.885 364.73
641.373 744.867 364.729
640.963 744.784 364.729
640.554 744.857 364.728
640.146 744.9 364.728
639.737 744.93 364.727
639.329 745.172 364.727
638.92 745.211 364.727
638.511 745.186 364.726
638.102 745.164 364.725
637.693 745.2 364.725
637.284 745.195 364.724
636.875 745.249 364.724
671.64 743.715 364.211
671.237 744.757 364.213
670.828 744.757 364.212
670.419 744.747 364.211
670.005 743.95 364.209
669.592 743.159 364.206
641.776 743.621 364.165
641.367 743.787 364.164
640.954 743.003 364.162
640.553 744.48 364.165
640.146 744.856 364.165
639.738 745.047 364.165
639.33 745.191 364.165
638.921 745.174 364.164
638.512 745.181 364.163
638.102 745.184 364.163
637.693 745.184 364.162
637.285 745.249 364.162
636.875 745.21 364.161
671.64 743.48 363.648
671.238 744.758 363.65
670.829 744.763 363.649
670.42 744.743 363.649
670.01 744.74 363.648
669.601 744.663 363.647
669.183 743.163 363.643
641.775 743.396 363.602
641.372 744.551 363.604
640.965 744.795 363.604
640.556 744.865 363.603
640.147 744.899 363.603
639.739 745.023 363.602
639.331 745.173 363.602
638.922 745.195 363.601
638.512 745.177 363.601
638.103 745.165 363.6
637.695 745.236 363.6
637.285 745.209 363.599
636.876 745.251 363.598
671.639 743.238 363.085
671.239 744.76 363.088
670.83 744.763 363.087
670.42 744.756 363.086
670.011 744.748 363.086
669.602 744.748 363.085
669.187 743.642 363.082
641.783 744.717 363.042
641.375 744.884 363.042
640.966 744.867 363.041
640.557 744.874 363.041
640.148 744.938 363.04
639.74 745.161 363.04
639.332 745.193 363.04
638.923 745.2 363.039
638.513 745.172 363.038
638.104 745.227 363.038
637.695 745.168 363.037
637.286 745.264 363.037
636.877 745.215 363.036
671.235 743.968 362.523
670.83 744.754 362.524
670.421 744.758 362.524
670.012 744.752 362.523
669.603 744.676 362.522
669.185 743.166 362.518
642.184 743.078 362.476
641.785 744.896 362.48
641.376 744.879 362.479
640.967 744.869 362.479
640.558 744.857 362.478
640.15 745.028 362.478
639.741 745.178 362.478
639.332 745.199 362.477
638.923 745.206 362.477
638.514 745.195 362.476
638.105 745.165 362.475
637.696 745.24 362.475
637.287 745.219 362.474
636.878 745.253 362.473
671.23 742.841 361.958
670.83 744.53 361.961
670.422 744.761 361.961
670.013 744.766 361.961
669.597 743.488 361.957
669.184 742.853 361.955
668.781 743.885 361.957
668.374 744.209 361.957
667.962 743.735 361.955
667.549 743.1 361.953
642.185 743.079 361.914
641.786 744.876 361.918
641.377 744.889 361.917
640.968 744.863 361.916
640.559 744.874 361.916
640.151 745.048 361.915
639.742 745.182 361.915
639.333 745.182 361.915
638.924 745.212 361.914
638.515 745.183 361.913
638.106 745.192 361.913
637.697 745.202 361.912
637.288 745.27 361.912
636.879 745.249 361.911
670.822 743.005 361.395
670.417 743.641 361.396
670.006 743.317 361.395
669.193 744.282 361.396
668.787 744.758 361.396
668.378 744.76 361.396
667.968 744.764 361.395
667.559 744.693 361.394
667.144 743.581 361.391
641.783 744.191 361.353
641.378 744.879 361.354
640.969 744.877 361.354
640.56 744.872 361.353
640.152 745.122 361.353
639.743 745.185 361.353
639.334 745.197 361.352
638.925 745.203 361.351
638.516 745.208 361.351
638.107 745.185 361.35
637.698 745.243 361.35
637.289 745.249 361.349
636.88 745.252 361.348
669.595 742.853 360.83
669.197 744.76 360.834
668.788 744.763 360.834
668.378 744.768 360.833
667.969 744.766 360.832
667.56 744.772 360.832
667.151 744.773 360.831
666.733 743.107 360.827
641.779 743.397 360.789
641.379 744.906 360.792
640.97 744.879 360.791
640.56 744.876 360.791
640.153 745.078 360.791
639.744 745.187 360.79
639.335 745.181 360.79
638.926 745.237 360.789
638.517 745.204 360.788
638.108 745.214 360.788
637.699 745.205 360.787
637.29 745.275 360.787
636.881 745.275 360.786
669.195 744.296 360.271
668.788 744.758 360.271
668.379 744.771 360.271
667.97 744.759 360.27
667.561 744.772 360.269
667.152 744.777 360.269
666.734 743.267 360.264
641.781 743.477 360.227
641.38 744.89 360.23
640.97 744.892 360.229
640.561 744.867 360.228
640.153 744.978 360.228
639.745 745.192 360.228
639.336 745.209 360.227
638.927 745.208 360.227
638.518 745.235 360.226
638.109 745.192 360.225
637.7 745.239 360.225
637.291 745.255 360.224
636.882 745.282 360.224
669.188 742.857 359.705
668.783 743.652 359.706
668.38 744.678 359.708
667.971 744.765 359.707
667.561 744.611 359.706
667.148 743.899 359.704
641.779 743.011 359.663
641.379 744.596 359.666
640.971 744.883 359.666
640.562 744.882 359.666
640.154 745.094 359.666
639.746 745.207 359.665
639.337 745.193 359.665
638.928 745.234 359.664
638.519 745.223 359.663
638.11 745.224 359.663
637.7 745.223 359.662
637.292 745.278 359.662
636.883 745.295 359.661
667.962 743.023 359.141
641.376 744.029 359.102
640.972 744.902 359.104
640.563 744.916 359.103
640.156 745.203 359.103
639.747 745.212 359.103
639.338 745.214 359.102
638.929 745.212 359.102
638.52 745.262 359.101
638.11 745.227 359.1
637.701 745.224 359.1
637.292 745.254 359.099
636.884 745.308 359.099
641.378 744.12 358.54
640.973 744.901 358.541
640.564 744.903 358.541
640.157 745.206 358.541
639.748 745.219 358.54
639.339 745.212 358.54
638.93 745.233 358.539
638.52 745.231 358.538
638.111 745.256 358.538
637.702 745.224 358.537
637.293 745.257 358.537
636.884 745.295 358.536
641.378 744.025 357.977
640.974 744.931 357.979
640.565 744.907 357.978
640.156 744.979 357.978
639.748 745.197 357.978
639.339 745.222 357.977
638.93 745.226 357.977
638.521 745.258 357.976
638.112 745.235 357.975
637.703 745.233 357.975
637.294 745.244 357.974
636.885 745.281 357.974
641.38 744.199 357.415
640.975 744.898 357.416
640.566 744.922 357.416
640.157 744.902 357.415
639.749 745.098 357.415
639.34 745.241 357.415
638.931 745.232 357.414
638.522 745.229 357.413
638.113 745.265 357.413
637.704 745.233 357.412
637.295 745.224 357.412
636.886 745.316 357.411
641.375 743.175 356.85
640.974 744.684 356.853
640.567 744.911 356.853
640.158 744.907 356.853
639.75 745.133 356.853
639.341 745.242 356.852
638.932 745.237 356.852
638.523 745.25 356.851
638.114 745.239 356.85
637.705 745.252 356.85
637.296 745.244 356.849
636.887 745.28 356.849
640.557 743.027 356.286
640.151 743.591 356.287
639.75 745.048 356.29
639.342 745.246 356.29
638.933 745.243 356.289
638.524 745.242 356.288
638.115 745.258 356.288
637.706 745.252 356.287
637.297 745.258 356.287
636.888 745.281 356.286
640.15 743.271 355.724
639.75 744.93 355.727
639.342 745.067 355.727
638.934 745.259 355.727
638.525 745.247 355.726
638.116 745.243 355.725
637.707 745.267 355.725
637.297 745.255 355.724
636.889 745.279 355.724
639.75 744.79 355.164
639.342 744.937 355.164
638.934 745.045 355.164
638.526 745.252 355.163
638.117 745.255 355.163
637.707 745.247 355.162
637.298 745.268 355.162
636.889 745.28 355.161
639.745 743.666 354.599
639.343 744.951 354.602
638.934 744.941 354.601
638.525 745.063 354.601
638.117 745.149 354.6
637.708 745.105 354.599
637.298 745.122 354.599
636.89 745.289 354.599
639.743 743.115 354.035
639.342 744.701 354.038
638.935 744.944 354.038
638.526 744.954 354.038
638.116 744.939 354.037
637.708 744.978 354.037
637.298 744.963 354.036
636.89 745.003 354.035
639.334 743.118 353.472
638.931 744.075 353.474
638.527 744.95 353.475
638.117 744.944 353.475
637.708 744.94 353.474
637.299 744.965 353.473
636.89 745.002 353.473
638.522 743.924 352.91
638.118 744.944 352.912
637.709 744.945 352.911
637.3 744.957 352.911
636.891 744.979 352.91
638.115 744.163 352.348
637.71 744.941 352.349
637.301 744.952 352.348
636.892 744.977 352.348
637.7 743.052 351.782
637.294 743.532 351.782
636.892 744.891 351.785
670.329 741.577 369.876
668.288 742.153 369.879
667.888 743.118 369.88
667.479 743.2 369.881
667.065 742.57 369.88
666.65 741.93 369.88
671.155 742.528 369.315
670.753 743.328 369.316
670.345 743.42 369.316
669.928 742.616 369.316
668.7 742.541 369.317
668.299 743.432 369.318
667.89 743.44 369.318
667.481 743.435 369.319
667.072 743.45 369.319
666.663 743.457 369.319
666.243 742.179 369.318
671.559 741.967 368.751
671.162 743.415 368.753
670.753 743.419 368.754
670.344 743.404 368.754
669.935 743.423 368.754
669.511 741.745 368.752
668.705 743.108 368.755
668.299 743.429 368.756
667.89 743.438 368.756
667.481 743.441 368.756
667.072 743.445 368.757
666.663 743.46 368.757
666.253 743.378 368.757
665.831 741.941 368.755
671.967 741.885 368.188
671.57 743.326 368.19
671.162 743.395 368.191
670.753 743.489 368.191
670.345 743.505 368.192
669.935 743.408 368.192
669.523 743.095 368.192
669.108 742.463 368.191
668.707 743.414 368.193
668.298 743.422 368.193
667.89 743.466 368.193
667.48 743.434 368.194
667.071 743.45 368.194
666.662 743.45 368.194
666.253 743.471 368.195
665.842 743.218 368.195
665.419 741.624 368.193
671.975 742.921 367.627
671.571 743.422 367.628
671.164 743.648 367.629
670.755 743.727 367.629
670.346 743.728 367.629
669.936 743.598 367.63
669.525 743.404 367.63
669.116 743.415 367.63
668.708 743.506 367.63
668.3 743.726 367.631
667.891 743.736 367.631
667.482 743.692 367.632
667.071 743.47 367.632
666.662 743.46 367.632
666.252 743.444 367.632
665.844 743.47 367.633
665.43 742.986 367.632
646.191 741.709 367.646
645.788 742.366 367.647
672.371 741.483 367.062
671.979 743.402 367.065
671.571 743.536 367.066
671.164 743.715 367.066
670.755 743.723 367.067
670.346 743.728 367.067
669.936 743.713 367.067
669.525 743.428 367.067
669.115 743.409 367.067
668.709 743.672 367.068
668.3 743.744 367.068
667.891 743.746 367.069
667.482 743.749 367.069
667.072 743.672 367.069
666.661 743.456 367.069
666.252 743.465 367.07
665.843 743.462 367.07
665.434 743.481 367.07
665.018 742.672 367.07
647.009 741.704 367.082
646.61 742.949 367.084
646.207 743.58 367.086
645.798 743.639 367.086
674.009 741.711 366.499
673.602 741.877 366.499
672.371 741.483 366.5
671.979 743.402 366.503
671.57 743.508 366.503
671.163 743.711 366.504
670.754 743.706 366.504
670.345 743.697 366.504
669.936 743.678 366.505
669.524 743.391 366.505
669.115 743.404 366.505
668.708 743.656 366.506
668.3 743.726 366.506
667.891 743.735 366.506
667.481 743.732 366.507
667.072 743.697 366.507
666.661 743.445 366.507
666.252 743.456 366.507
665.843 743.455 366.508
665.434 743.468 366.508
665.025 743.488 366.508
664.606 742.36 366.507
647.015 742.47 366.521
646.616 743.572 366.523
646.206 743.58 366.523
645.798 743.646 366.523
674.828 741.871 365.936
674.427 742.775 365.937
674.024 743.415 365.939
673.615 743.44 365.939
673.198 742.539 365.938
671.971 742.585 365.939
671.569 743.392 365.94
671.162 743.657 365.941
670.754 743.709 365.942
670.344 743.662 365.942
669.932 743.37 365.942
669.519 742.837 365.941
669.105 742.375 365.941
668.695 742.184 365.941
668.292 742.903 365.942
667.886 743.268 365.943
667.479 743.534 365.944
667.07 743.503 365.944
666.66 743.442 365.944
666.251 743.444 365.945
665.842 743.462 365.945
665.433 743.465 365.945
665.024 743.476 365.946
664.615 743.497 365.946
664.195 742.282 365.945
647.018 742.864 365.959
646.615 743.558 365.96
646.206 743.592 365.961
645.797 743.64 365.961
675.234 741.545 365.373
674.841 743.345 365.375
674.433 743.45 365.376
674.026 743.672 365.376
673.617 743.714 365.377
673.208 743.719 365.377
672.794 743.162 365.377
672.37 741.497 365.375
671.961 741.463 365.375
671.559 742.323 365.377
671.157 743.085 365.378
670.747 742.98 365.378
670.33 742.084 365.377
669.915 741.48 365.377
667.461 741.527 365.379
667.062 742.718 365.381
666.66 743.445 365.382
666.251 743.45 365.382
665.842 743.453 365.383
665.433 743.474 365.383
665.024 743.474 365.383
664.615 743.491 365.384
664.206 743.501 365.384
663.785 742.21 365.382
647.019 743.087 365.397
646.615 743.566 365.398
646.206 743.569 365.398
645.797 743.661 365.398
675.24 742.276 364.811
674.841 743.422 364.813
674.434 743.613 364.814
674.026 743.728 364.814
673.616 743.712 364.814
673.207 743.707 364.815
672.798 743.707 364.815
672.378 742.417 364.813
666.658 743.281 364.819
666.25 743.443 364.82
665.841 743.453 364.82
665.432 743.462 364.82
665.023 743.47 364.821
664.614 743.487 364.821
664.205 743.507 364.821
663.795 743.424 364.822
663.371 741.728 364.82
647.021 743.258 364.835
646.614 743.548 364.835
646.205 743.59 364.836
645.797 743.646 364.836
675.242 742.524 364.249
674.841 743.415 364.25
674.434 743.688 364.251
674.025 743.723 364.251
673.616 743.717 364.252
673.207 743.706 364.252
672.798 743.704 364.252
672.381 742.877 364.252
666.654 742.89 364.256
666.25 743.456 364.257
665.841 743.455 364.258
665.432 743.464 364.258
665.023 743.47 364.258
664.614 743.502 364.259
664.205 743.5 364.259
663.796 743.515 364.259
663.373 741.97 364.257
647.415 741.704 364.27
647.02 743.243 364.272
646.614 743.572 364.273
646.205 743.576 364.273
645.797 743.685 364.273
675.651 742.53 363.686
675.249 743.425 363.688
674.841 743.467 363.688
674.434 743.732 363.689
674.025 743.71 363.689
673.616 743.712 363.689
673.206 743.71 363.69
672.797 743.699 363.69
672.375 742.23 363.688
666.643 741.696 363.692
666.247 743.223 363.694
665.84 743.462 363.695
665.432 743.529 363.695
665.025 743.762 363.696
664.616 743.79 363.696
664.205 743.62 363.697
663.795 743.486 363.697
663.372 741.958 363.695
647.426 742.934 363.709
647.022 743.559 363.71
646.613 743.552 363.71
646.205 743.612 363.711
645.796 743.653 363.711
676.053 741.866 363.122
675.658 743.425 363.125
675.249 743.416 363.125
674.842 743.62 363.126
674.433 743.728 363.126
674.024 743.713 363.126
673.615 743.711 363.127
673.206 743.706 363.127
672.795 743.519 363.127
666.242 742.724 363.131
665.84 743.469 363.133
665.433 743.698 363.133
665.024 743.774 363.134
664.615 743.782 363.134
664.206 743.775 363.134
663.795 743.543 363.134
663.379 742.787 363.134
647.824 741.7 363.144
647.431 743.571 363.147
647.022 743.54 363.147
646.613 743.579 363.148
646.204 743.594 363.148
645.795 743.646 363.148
676.054 741.945 362.56
675.658 743.432 362.562
675.249 743.422 362.563
674.841 743.617 362.563
674.433 743.718 362.564
674.024 743.717 362.564
673.615 743.709 362.564
673.206 743.703 362.565
672.796 743.707 362.565
672.382 743.151 362.564
671.959 741.504 362.563
666.644 741.942 362.567
666.249 743.473 362.57
665.839 743.461 362.57
665.433 743.755 362.571
665.024 743.782 362.571
664.615 743.785 362.571
664.206 743.787 362.572
663.795 743.628 362.572
663.385 743.513 362.572
662.967 742.456 362.571
647.825 741.854 362.582
647.43 743.55 362.585
647.021 743.566 362.585
646.612 743.575 362.585
646.203 743.59 362.586
645.795 743.663 362.586
676.049 741.458 361.997
675.657 743.432 362.0
675.248 743.424 362.0
674.84 743.51 362.001
674.432 743.718 362.001
674.023 743.715 362.001
673.614 743.719 362.002
673.205 743.701 362.002
672.796 743.71 362.002
672.387 743.712 362.003
671.962 741.965 362.001
667.052 741.858 362.004
666.657 743.395 362.007
666.248 743.476 362.007
665.839 743.468 362.008
665.432 743.75 362.008
665.024 743.781 362.009
664.615 743.79 362.009
664.205 743.788 362.009
663.795 743.597 362.009
663.385 743.502 362.009
662.971 743.017 362.009
647.428 743.332 362.022
647.021 743.549 362.022
646.612 743.57 362.023
646.203 743.589 362.023
645.794 743.643 362.023
675.65 742.605 361.436
675.248 743.42 361.438
674.839 743.529 361.438
674.432 743.724 361.439
674.023 743.714 361.439
673.614 743.712 361.439
673.205 743.705 361.44
672.795 743.701 361.44
672.386 743.614 361.44
671.96 741.69 361.438
667.059 742.669 361.443
666.657 743.472 361.444
666.248 743.471 361.445
665.84 743.635 361.445
665.432 743.768 361.446
665.023 743.78 361.446
664.614 743.782 361.446
664.205 743.792 361.447
663.794 743.554 361.447
663.384 743.498 361.447
662.969 742.776 361.446
647.422 742.711 361.458
647.02 743.547 361.46
646.612 743.578 361.46
646.203 743.586 361.461
645.794 743.664 361.461
675.647 742.352 360.873
675.247 743.41 360.875
674.84 743.608 360.876
674.432 743.73 360.876
674.022 743.712 360.876
673.613 743.712 360.877
673.204 743.712 360.877
672.795 743.675 360.877
672.37 741.87 360.875
667.467 742.581 360.88
667.066 743.477 360.882
666.656 743.481 360.882
666.248 743.584 360.882
665.841 743.773 360.883
665.432 743.773 360.883
665.023 743.782 360.884
664.614 743.793 360.884
664.205 743.788 360.884
663.793 743.529 360.884
663.384 743.498 360.884
662.962 742.053 360.883
647.825 742.088 360.895
647.428 743.479 360.897
647.02 743.563 360.897
646.611 743.562 360.898
646.202 743.619 360.898
645.793 743.622 360.898
675.641 741.709 360.31
675.246 743.326 360.312
674.84 743.642 360.313
674.431 743.716 360.314
674.022 743.725 360.314
673.613 743.712 360.314
673.204 743.71 360.315
672.792 743.366 360.314
671.142 741.902 360.314
670.733 741.906 360.314
667.473 743.313 360.319
667.065 743.474 360.319
666.656 743.524 360.319
666.249 743.756 360.32
665.84 743.775 360.32
665.431 743.779 360.321
665.022 743.783 360.321
664.613 743.792 360.321
664.204 743.754 360.322
663.792 743.495 360.322
663.373 742.288 360.32
647.832 742.933 360.333
647.429 743.559 360.335
647.02 743.556 360.335
646.611 743.615 360.335
646.202 743.583 360.336
645.793 743.667 360.336
675.235 742.198 359.748
674.838 743.557 359.751
674.431 743.713 359.751
674.022 743.73 359.751
673.612 743.711 359.752
673.203 743.71 359.752
672.794 743.711 359.752
672.377 742.746 359.751
671.961 741.975 359.751
671.558 742.721 359.752
671.156 743.525 359.753
670.747 743.475 359.754
670.33 742.631 359.753
669.913 741.674 359.752
667.473 743.398 359.756
667.065 743.469 359.757
666.657 743.662 359.757
666.249 743.779 359.758
665.84 743.781 359.758
665.431 743.781 359.758
665.022 743.779 359.759
664.613 743.78 359.759
664.202 743.643 359.759
663.781 742.205 359.757
647.833 743.098 359.771
647.428 743.561 359.772
647.019 743.587 359.772
646.61 743.574 359.773
646.202 743.632 359.773
645.793 743.639 359.773
675.232 741.87 359.186
674.837 743.415 359.188
674.43 743.7 359.189
674.021 743.717 359.189
673.612 743.713 359.189
673.203 743.714 359.19
672.794 743.712 359.19
672.385 743.71 359.19
671.974 743.484 359.19
671.566 743.715 359.191
671.158 743.74 359.191
670.749 743.745 359.192
670.339 743.701 359.192
669.929 743.643 359.192
669.517 743.283 359.192
669.1 742.413 359.191
668.695 742.869 359.192
668.285 742.77 359.192
667.873 742.412 359.192
667.474 743.577 359.194
667.066 743.66 359.194
666.658 743.769 359.195
666.249 743.779 359.195
665.84 743.777 359.195
665.431 743.784 359.196
665.021 743.783 359.196
664.612 743.711 359.196
664.198 743.239 359.196
647.828 742.549 359.208
647.428 743.571 359.21
647.019 743.576 359.21
646.61 743.616 359.21
646.201 743.612 359.211
645.792 743.652 359.211
674.828 742.517 358.624
674.427 743.396 358.626
674.02 743.67 358.626
673.612 743.712 358.627
673.202 743.72 358.627
672.793 743.71 358.627
672.384 743.727 358.628
671.975 743.682 358.628
671.566 743.725 358.628
671.157 743.726 358.629
670.748 743.732 358.629
670.339 743.738 358.629
669.93 743.734 358.63
669.521 743.739 358.63
669.112 743.748 358.63
668.703 743.76 358.631
668.293 743.731 358.631
667.884 743.723 358.631
667.476 743.77 358.632
667.066 743.765 358.632
666.657 743.775 358.632
666.248 743.78 358.633
665.839 743.769 358.633
665.43 743.781 358.633
665.021 743.775 358.634
664.61 743.584 358.634
664.187 742.042 358.632
647.822 741.94 358.645
647.427 743.566 358.647
647.019 743.6 358.647
646.609 743.595 358.648
646.201 743.644 358.648
645.792 743.647 358.648
674.411 741.691 358.061
674.013 742.889 358.063
673.608 743.371 358.064
673.202 743.721 358.065
672.793 743.709 358.065
672.382 743.522 358.065
671.974 743.638 358.065
671.566 743.717 358.066
671.157 743.722 358.066
670.747 743.725 358.067
670.339 743.74 358.067
669.929 743.742 358.067
669.52 743.753 358.068
669.111 743.752 358.068
668.702 743.757 358.068
668.293 743.765 358.069
667.884 743.759 358.069
667.475 743.754 358.069
667.066 743.767 358.069
666.657 743.766 358.07
666.248 743.77 358.07
665.839 743.776 358.07
665.429 743.763 358.071
665.02 743.728 358.071
664.602 742.681 358.07
647.825 742.319 358.083
647.427 743.593 358.085
647.018 743.585 358.085
646.609 743.648 358.085
646.2 743.618 358.086
645.792 743.683 358.086
673.182 741.5 357.499
672.773 741.503 357.499
672.375 742.812 357.502
671.972 743.45 357.503
671.565 743.71 357.503
671.156 743.73 357.504
670.747 743.736 357.504
670.338 743.737 357.504
669.929 743.737 357.505
669.52 743.738 357.505
669.111 743.744 357.505
668.702 743.748 357.506
668.293 743.745 357.506
667.884 743.759 357.506
667.474 743.759 357.507
667.065 743.763 357.507
666.656 743.765 357.507
666.247 743.732 357.508
665.836 743.565 357.508
665.423 743.136 357.507
665.002 741.771 357.506
647.825 742.308 357.52
647.427 743.575 357.522
647.018 743.636 357.522
646.609 743.679 357.523
646.201 743.736 357.523
645.792 743.8 357.524
672.366 741.743 356.938
671.967 742.923 356.94
671.563 743.527 356.941
671.156 743.723 356.941
670.747 743.721 356.942
670.338 743.727 356.942
669.928 743.732 356.942
669.519 743.74 356.943
669.11 743.741 356.943
668.701 743.747 356.943
668.292 743.761 356.944
667.883 743.759 356.944
667.474 743.759 356.944
667.065 743.751 356.944
666.656 743.751 356.945
666.245 743.562 356.945
665.834 743.37 356.945
665.413 741.951 356.943
647.826 742.556 356.958
647.426 743.608 356.96
647.019 743.783 356.96
646.611 743.922 356.961
646.202 743.936 356.961
645.793 743.955 356.961
671.955 741.587 356.375
671.557 742.857 356.377
671.153 743.457 356.378
670.744 743.532 356.379
670.336 743.617 356.379
669.927 743.652 356.38
669.519 743.721 356.38
669.11 743.722 356.38
668.701 743.738 356.381
668.292 743.727 356.381
667.882 743.703 356.381
667.472 743.623 356.381
667.063 743.606 356.382
666.651 743.214 356.382
666.234 742.345 356.381
665.819 741.686 356.38
647.822 742.103 356.395
647.426 743.587 356.397
647.019 743.875 356.398
646.611 743.938 356.398
646.202 743.93 356.399
645.793 743.969 356.399
671.141 742.14 355.814
670.738 742.852 355.815
670.332 743.248 355.816
669.924 743.333 355.817
669.516 743.411 355.817
669.107 743.413 355.817
668.698 743.455 355.818
668.282 742.714 355.817
667.87 742.311 355.817
667.461 742.365 355.817
667.047 741.839 355.817
647.421 743.057 355.834
647.018 743.818 355.835
646.61 743.926 355.836
646.201 743.941 355.836
645.792 743.961 355.836
669.5 741.68 355.252
669.091 741.763 355.253
668.684 741.924 355.253
647.411 741.952 355.27
647.016 743.642 355.272
646.609 743.865 355.273
646.201 743.932 355.274
645.792 743.973 355.274
647.408 741.718 354.707
647.016 743.61 354.71
646.607 743.647 354.71
646.199 743.797 354.711
645.791 743.878 354.711
647.005 742.435 354.146
646.606 743.621 354.148
646.197 743.636 354.148
645.788 743.668 354.148
646.601 743.073 353.585
646.197 743.632 353.586
645.788 743.668 353.586
646.589 741.728 353.02
646.194 743.404 353.023
645.787 743.654 353.023
646.18 741.892 352.458
645.783 743.181 352.46
668.698 741.156 370.995
668.301 742.437 370.995
667.895 742.754 370.995
667.479 742.051 370.996
673.201 741.514 370.43
672.793 741.591 370.43
672.379 741.121 370.43
668.708 742.271 370.432
668.307 743.078 370.433
667.898 743.093 370.433
667.488 743.084 370.433
667.07 742.058 370.433
666.244 741.261 370.434
674.018 741.425 369.867
673.618 742.394 369.867
673.215 743.04 369.867
672.806 743.025 369.867
672.392 742.564 369.868
669.517 741.306 369.869
669.122 742.819 369.87
668.715 743.068 369.87
668.306 743.079 369.87
667.897 743.08 369.87
667.488 743.096 369.871
667.074 742.615 369.871
666.668 742.879 369.871
666.261 743.134 369.871
665.849 742.819 369.872
665.428 741.594 369.872
674.431 741.911 369.304
674.033 743.043 369.304
673.624 743.029 369.304
673.215 743.027 369.305
672.806 743.034 369.305
672.396 743.022 369.305
671.971 741.283 369.305
669.522 741.949 369.307
669.124 743.052 369.307
668.715 743.068 369.307
668.306 743.064 369.308
667.897 743.091 369.308
667.487 743.015 369.308
667.073 742.545 369.308
666.67 743.101 369.309
666.261 743.139 369.309
665.852 743.126 369.309
665.442 743.058 369.309
665.022 741.925 369.31
675.243 741.258 368.741
674.849 742.795 368.741
674.442 743.039 368.741
674.032 743.023 368.742
673.624 743.038 368.742
673.214 743.035 368.742
672.805 743.033 368.742
672.396 743.035 368.743
671.973 741.518 368.743
669.524 742.175 368.744
669.124 743.1 368.745
668.715 743.14 368.745
668.306 743.133 368.745
667.898 743.221 368.745
667.478 742.145 368.746
667.07 742.227 368.746
666.669 743.108 368.746
666.26 743.12 368.746
665.851 743.135 368.747
665.442 743.146 368.747
665.033 743.137 368.747
664.612 741.853 368.747
675.65 741.09 368.178
675.256 742.626 368.178
674.851 743.046 368.179
674.441 743.034 368.179
674.032 743.024 368.179
673.623 743.038 368.179
673.214 743.026 368.18
672.805 743.035 368.18
672.396 743.032 368.18
671.987 743.032 368.18
671.57 742.235 368.181
669.925 741.302 368.182
669.531 742.894 368.182
669.126 743.371 368.182
668.717 743.386 368.182
668.308 743.4 368.183
667.899 743.394 368.183
667.49 743.416 368.183
667.079 743.254 368.184
666.671 743.309 368.184
666.26 743.141 368.184
665.851 743.131 368.184
665.442 743.131 368.184
665.033 743.155 368.185
664.624 743.151 368.185
664.209 742.52 368.185
663.787 741.204 368.185
675.654 741.495 367.616
675.259 743.045 367.616
674.85 743.026 367.616
674.441 743.036 367.616
674.032 743.031 367.617
673.623 743.027 367.617
673.214 743.038 367.617
672.805 743.029 367.617
672.395 743.028 367.618
671.986 743.026 367.618
671.577 743.033 367.618
671.151 741.21 367.618
670.336 741.612 367.619
669.94 742.907 367.619
669.535 743.37 367.619
669.126 743.37 367.62
668.717 743.397 367.62
668.308 743.391 367.62
667.899 743.417 367.62
667.49 743.403 367.621
667.081 743.424 367.621
666.672 743.42 367.621
666.262 743.389 367.621
665.851 743.132 367.622
665.442 743.141 367.622
665.032 743.131 367.622
664.624 743.164 367.622
664.215 743.172 367.623
663.798 742.359 367.623
675.659 742.066 367.053
675.259 743.029 367.053
674.85 743.044 367.054
674.441 743.031 367.054
674.031 743.023 367.054
673.623 743.114 367.054
673.214 743.121 367.055
672.805 743.105 367.055
672.396 743.085 367.055
671.986 743.043 367.055
671.577 743.031 367.056
671.151 741.319 367.056
670.352 743.278 367.056
669.944 743.37 367.057
669.535 743.372 367.057
669.126 743.38 367.057
668.716 743.37 367.057
668.307 743.401 367.058
667.898 743.379 367.058
667.489 743.402 367.058
667.08 743.421 367.058
666.671 743.42 367.059
666.262 743.433 367.059
665.853 743.426 367.059
665.442 743.206 367.059
665.032 743.136 367.06
664.623 743.151 367.06
664.214 743.18 367.06
663.804 743.1 367.061
663.381 741.622 367.061
676.058 741.087 366.49
675.666 742.88 366.491
675.259 743.032 366.491
674.849 743.029 366.491
674.441 743.076 366.491
674.033 743.239 366.492
673.625 743.347 366.492
673.216 743.346 366.492
672.807 743.341 366.492
672.398 743.343 366.493
671.989 743.348 366.493
671.578 743.142 366.493
671.152 741.437 366.493
670.745 741.609 366.494
670.352 743.36 366.494
669.943 743.362 366.494
669.534 743.37 366.494
669.125 743.362 366.495
668.716 743.381 366.495
668.307 743.381 366.495
667.898 743.396 366.495
667.489 743.405 366.496
667.08 743.41 366.496
666.671 743.423 366.496
666.262 743.412 366.496
665.853 743.446 366.497
665.444 743.425 366.497
665.033 743.293 366.497
664.623 743.191 366.497
664.214 743.168 366.498
663.805 743.18 366.498
663.395 743.11 366.498
662.969 741.293 366.498
676.07 742.385 365.928
675.667 743.041 365.928
675.258 743.043 365.928
674.851 743.283 365.929
674.443 743.353 365.929
674.034 743.342 365.929
673.625 743.352 365.929
673.216 743.343 365.93
672.806 743.347 365.93
672.397 743.357 365.93
671.988 743.347 365.93
671.579 743.284 365.931
671.149 741.107 365.931
670.743 741.426 365.931
670.352 743.354 365.931
669.943 743.363 365.932
669.534 743.364 365.932
669.125 743.38 365.932
668.715 743.346 365.932
668.304 743.132 365.933
667.897 743.285 365.933
667.488 743.38 365.933
667.079 743.4 365.933
666.67 743.402 365.934
666.261 743.417 365.934
665.852 743.41 365.934
665.444 743.458 365.935
665.034 743.449 365.935
664.625 743.453 365.935
664.214 743.21 365.935
663.805 743.18 365.936
663.396 743.19 365.936
662.979 742.453 365.936
676.073 742.71 365.365
675.667 743.033 365.366
675.26 743.211 365.366
674.852 743.352 365.366
674.443 743.354 365.366
674.033 743.346 365.367
673.624 743.34 365.367
673.215 743.342 365.367
672.806 743.345 365.367
672.397 743.348 365.368
671.988 743.347 365.368
671.579 743.354 365.368
671.157 741.992 365.368
670.339 741.974 365.369
669.94 743.065 365.369
669.533 743.338 365.369
669.124 743.344 365.37
668.713 743.161 365.37
668.303 743.043 365.37
667.894 743.083 365.37
667.487 743.271 365.371
667.079 743.388 365.371
666.67 743.416 365.371
666.261 743.398 365.371
665.852 743.43 365.372
665.443 743.417 365.372
665.034 743.462 365.372
664.625 743.451 365.373
664.215 743.409 365.373
663.804 743.18 365.373
663.395 743.2 365.373
662.986 743.195 365.374
662.566 742.034 365.374
676.07 742.469 364.803
675.667 743.031 364.803
675.26 743.251 364.803
674.851 743.35 364.804
674.442 743.346 364.804
674.033 743.344 364.804
673.624 743.34 364.804
673.215 743.311 364.805
672.805 743.228 364.805
672.397 743.353 364.805
671.988 743.359 364.805
671.579 743.364 364.806
671.168 743.188 364.806
670.754 742.718 364.806
670.334 741.531 364.806
669.514 741.34 364.807
669.106 741.507 364.807
668.711 742.955 364.807
668.303 743.034 364.808
667.887 742.333 364.808
667.061 741.51 364.808
666.663 742.714 364.809
666.26 743.374 364.809
665.851 743.398 364.809
665.443 743.432 364.81
665.033 743.422 364.81
664.625 743.476 364.81
664.216 743.456 364.81
663.806 743.362 364.811
663.395 743.172 364.811
662.986 743.199 364.811
662.573 742.859 364.811
676.472 741.731 364.24
676.075 743.033 364.24
675.666 743.033 364.241
675.259 743.237 364.241
674.851 743.351 364.241
674.442 743.341 364.241
674.033 743.332 364.242
673.624 743.341 364.242
673.214 743.292 364.242
672.803 743.143 364.242
672.396 743.352 364.243
671.987 743.359 364.243
671.578 743.346 364.243
671.167 743.146 364.243
670.757 743.039 364.244
670.347 742.956 364.244
669.925 741.613 364.244
669.112 742.089 364.245
668.711 743.032 364.245
668.302 743.035 364.245
667.893 743.037 364.245
667.469 741.478 364.246
666.656 741.966 364.246
666.255 742.897 364.246
665.851 743.414 364.247
665.442 743.412 364.247
665.033 743.451 364.247
664.624 743.451 364.248
664.215 743.475 364.248
663.806 743.454 364.248
663.395 743.259 364.248
662.985 743.191 364.249
662.576 743.108 364.249
676.886 742.226 363.677
676.484 743.035 363.678
676.075 743.028 363.678
675.667 743.153 363.678
675.26 743.345 363.678
674.851 743.353 363.679
674.442 743.346 363.679
674.032 743.338 363.679
673.623 743.338 363.679
673.214 743.341 363.68
672.805 743.344 363.68
672.396 743.359 363.68
671.987 743.357 363.68
671.577 743.228 363.681
671.166 743.044 363.681
670.757 743.041 363.681
670.348 743.038 363.681
669.938 743.033 363.682
669.526 742.638 363.682
669.119 742.954 363.682
668.711 743.035 363.682
668.302 743.039 363.683
667.893 743.042 363.683
667.481 742.738 363.683
667.061 741.563 363.683
666.65 741.42 363.684
666.255 742.866 363.684
665.851 743.392 363.684
665.442 743.41 363.684
665.033 743.419 363.685
664.624 743.464 363.685
664.215 743.453 363.685
663.806 743.474 363.686
663.396 743.423 363.686
662.985 743.186 363.686
662.576 743.184 363.686
662.15 741.462 363.686
677.288 741.563 363.115
676.893 743.032 363.115
676.484 743.043 363.115
676.075 743.038 363.115
675.668 743.331 363.116
675.259 743.345 363.116
674.85 743.342 363.116
674.441 743.343 363.116
674.032 743.339 363.117
673.623 743.333 363.117
673.214 743.338 363.117
672.805 743.354 363.117
672.396 743.361 363.118
671.987 743.369 363.118
671.576 743.153 363.118
671.165 743.052 363.118
670.756 743.047 363.119
670.347 743.039 363.119
669.938 743.039 363.119
669.529 743.035 363.119
669.12 743.041 363.12
668.711 743.041 363.12
668.302 743.041 363.12
667.893 743.045 363.12
667.483 743.047 363.121
667.074 743.052 363.121
666.655 741.935 363.121
666.253 742.702 363.121
665.85 743.4 363.122
665.441 743.398 363.122
665.032 743.427 363.122
664.623 743.437 363.123
664.215 743.468 363.123
663.806 743.475 363.123
663.396 743.414 363.123
662.984 743.18 363.124
662.575 743.178 363.124
662.152 741.625 363.124
677.292 742.059 362.552
676.893 743.037 362.552
676.483 743.029 362.553
676.076 743.222 362.553
675.668 743.353 362.553
675.259 743.349 362.553
674.85 743.336 362.554
674.441 743.339 362.554
674.032 743.338 362.554
673.622 743.339 362.554
673.213 743.336 362.555
672.804 743.352 362.555
672.395 743.369 362.555
671.986 743.368 362.555
671.577 743.331 362.556
671.165 743.049 362.556
670.756 743.044 362.556
670.347 743.036 362.556
669.938 743.046 362.557
669.529 743.041 362.557
669.12 743.052 362.557
668.71 743.048 362.557
668.301 743.049 362.558
667.892 743.051 362.558
667.483 743.052 362.558
667.074 743.058 362.558
666.665 743.065 362.559
666.255 742.914 362.559
665.85 743.39 362.559
665.441 743.42 362.559
665.032 743.43 362.56
664.623 743.447 362.56
664.214 743.476 362.56
663.805 743.477 362.561
663.395 743.404 362.561
662.984 743.196 362.561
662.574 743.097 362.561
677.295 742.379 361.99
676.892 743.029 361.99
676.483 743.015 361.99
676.077 743.31 361.99
675.668 743.347 361.991
675.259 743.347 361.991
674.849 743.337 361.991
674.44 743.337 361.991
674.031 743.335 361.992
673.622 743.337 361.992
673.213 743.348 361.992
672.804 743.358 361.992
672.395 743.376 361.993
671.986 743.381 361.993
671.577 743.369 361.993
671.165 743.111 361.993
670.756 743.058 361.994
670.347 743.062 361.994
669.937 743.055 361.994
669.528 743.061 361.994
669.119 743.049 361.995
668.71 743.054 361.995
668.301 743.056 361.995
667.892 743.051 361.995
667.483 743.056 361.996
667.074 743.055 361.996
666.665 743.066 361.996
666.248 742.278 361.996
665.85 743.411 361.997
665.441 743.401 361.997
665.032 743.433 361.997
664.623 743.44 361.998
664.214 743.468 361.998
663.805 743.475 361.998
663.395 743.4 361.998
662.984 743.186 361.999
662.575 743.171 361.999
677.298 742.693 361.427
676.892 743.024 361.427
676.483 743.025 361.428
676.076 743.263 361.428
675.667 743.336 361.428
675.258 743.337 361.428
674.849 743.342 361.429
674.44 743.336 361.429
674.031 743.338 361.429
673.622 743.344 361.429
673.213 743.336 361.43
672.804 743.361 361.43
672.395 743.376 361.43
671.986 743.391 361.43
671.577 743.378 361.431
671.165 743.105 361.431
670.755 743.062 361.431
670.346 743.058 361.431
669.937 743.056 361.432
669.528 743.053 361.432
669.119 743.052 361.432
668.71 743.053 361.432
668.301 743.059 361.433
667.892 743.061 361.433
667.482 743.057 361.433
667.073 743.061 361.433
666.663 742.906 361.434
666.24 741.495 361.434
665.849 743.32 361.434
665.44 743.427 361.435
665.031 743.42 361.435
664.622 743.446 361.435
664.213 743.456 361.435
663.805 743.475 361.436
663.394 743.324 361.436
662.984 743.184 361.436
662.574 743.168 361.436
677.295 742.449 360.865
676.891 743.032 360.865
676.482 743.032 360.865
676.075 743.266 360.865
675.667 743.343 360.866
675.258 743.335 360.866
674.849 743.342 360.866
674.44 743.332 360.866
674.031 743.331 360.867
673.621 743.323 360.867
673.212 743.336 360.867
672.803 743.352 360.867
672.394 743.367 360.868
671.986 743.386 360.868
671.576 743.391 360.868
671.164 743.084 360.868
670.755 743.081 360.869
670.346 743.062 360.869
669.937 743.063 360.869
669.526 742.909 360.869
669.109 742.025 360.87
668.705 742.594 360.87
668.3 742.98 360.87
667.891 743.063 360.87
667.482 743.06 360.871
667.073 743.062 360.871
666.66 742.674 360.871
666.254 743.009 360.871
665.848 743.339 360.872
665.44 743.405 360.872
665.031 743.432 360.872
664.622 743.445 360.873
664.213 743.48 360.873
663.804 743.472 360.873
663.393 743.273 360.873
662.983 743.181 360.874
662.571 742.842 360.874
677.289 741.881 360.302
676.891 743.017 360.302
676.482 743.02 360.303
676.074 743.191 360.303
675.667 743.35 360.303
675.257 743.33 360.303
674.848 743.324 360.304
674.439 743.329 360.304
674.03 743.334 360.304
673.621 743.34 360.304
673.212 743.341 360.305
672.803 743.356 360.305
672.394 743.377 360.305
671.985 743.399 360.305
671.575 743.296 360.306
671.164 743.084 360.306
670.755 743.075 360.306
670.346 743.069 360.306
669.937 743.065 360.307
669.522 742.508 360.307
667.875 741.398 360.308
667.471 741.876 360.308
667.062 741.96 360.308
666.651 741.73 360.309
666.256 743.196 360.309
665.849 743.409 360.309
665.44 743.422 360.309
665.031 743.412 360.31
664.622 743.458 360.31
664.213 743.447 360.31
663.804 743.471 360.311
663.393 743.319 360.311
662.983 743.175 360.311
662.564 742.187 360.311
676.888 742.689 359.74
676.481 743.004 359.74
676.073 743.06 359.74
675.666 743.337 359.741
675.257 743.335 359.741
674.848 743.327 359.741
674.439 743.349 359.741
674.03 743.337 359.742
673.621 743.337 359.742
673.212 743.337 359.742
672.803 743.346 359.742
672.394 743.361 359.743
671.985 743.39 359.743
671.575 743.311 359.743
671.164 743.095 359.743
670.755 743.08 359.744
670.345 743.063 359.744
669.936 743.066 359.744
669.527 743.059 359.744
669.106 741.768 359.745
668.694 741.462 359.745
668.281 741.135 359.745
667.055 741.255 359.746
666.656 742.318 359.746
666.257 743.395 359.746
665.848 743.406 359.747
665.439 743.417 359.747
665.031 743.447 359.747
664.621 743.448 359.748
664.213 743.475 359.748
663.803 743.455 359.748
663.392 743.244 359.748
662.981 743.075 359.749
662.556 741.376 359.749
676.873 741.241 359.177
676.478 742.689 359.178
676.072 743.037 359.178
675.666 743.32 359.178
675.257 743.337 359.178
674.848 743.33 359.179
674.439 743.326 359.179
674.029 743.331 359.179
673.62 743.328 359.179
673.211 743.332 359.18
672.802 743.34 359.18
672.393 743.348 359.18
671.984 743.372 359.18
671.576 743.397 359.181
671.166 743.356 359.181
670.754 743.104 359.181
670.345 743.071 359.181
669.936 743.055 359.182
669.527 743.062 359.182
669.117 743.037 359.182
668.707 742.886 359.182
668.293 742.419 359.183
667.465 741.381 359.183
667.07 742.81 359.183
666.666 743.409 359.184
666.257 743.392 359.184
665.848 743.412 359.184
665.439 743.408 359.185
665.03 743.428 359.185
664.621 743.454 359.185
664.212 743.439 359.185
663.802 743.365 359.186
663.391 743.153 359.186
662.974 742.339 359.186
676.071 742.928 358.615
675.664 743.127 358.616
675.256 743.329 358.616
674.847 743.33 358.616
674.438 743.325 358.616
674.029 743.329 358.617
673.62 743.34 358.617
673.211 743.338 358.617
672.802 743.35 358.617
672.393 743.356 358.618
671.984 743.357 358.618
671.575 743.378 358.618
671.166 743.38 358.618
670.756 743.353 358.619
670.344 743.042 358.619
669.935 743.047 358.619
669.527 743.126 358.619
669.119 743.286 358.62
668.71 743.28 358.62
668.3 743.147 358.62
667.889 742.986 358.62
667.481 743.088 358.621
667.075 743.361 358.621
666.666 743.414 358.621
666.257 743.41 358.621
665.848 743.405 358.622
665.439 743.434 358.622
665.03 743.446 358.622
664.621 743.448 358.623
664.212 743.451 358.623
663.801 743.284 358.623
663.39 743.066 358.623
662.964 741.291 358.623
676.067 742.518 358.053
675.662 743.008 358.053
675.254 743.122 358.053
674.847 743.325 358.054
674.438 743.327 358.054
674.029 743.323 358.054
673.62 743.339 358.054
673.211 743.331 358.055
672.802 743.343 358.055
672.393 743.352 358.055
671.983 743.354 358.055
671.574 743.366 358.056
671.165 743.37 358.056
670.756 743.368 358.056
670.345 743.091 358.056
669.935 743.06 358.057
669.529 743.37 358.057
669.12 743.391 358.057
668.711 743.384 358.057
668.302 743.403 358.058
667.891 743.193 358.058
667.481 743.1 358.058
667.075 743.4 358.058
666.666 743.408 358.059
666.256 743.402 358.059
665.848 743.439 358.059
665.438 743.431 358.06
665.029 743.444 358.06
664.62 743.432 358.06
664.211 743.395 358.06
663.795 742.688 358.06
663.376 741.609 358.061
676.056 741.484 357.49
675.661 742.925 357.491
675.253 743.013 357.491
674.845 743.125 357.491
674.437 743.324 357.491
674.028 743.317 357.492
673.619 743.328 357.492
673.21 743.334 357.492
672.801 743.335 357.492
672.392 743.338 357.493
671.983 743.345 357.493
671.574 743.357 357.493
671.165 743.367 357.493
670.756 743.383 357.494
670.344 743.112 357.494
669.936 743.231 357.494
669.529 743.387 357.494
669.12 743.385 357.495
668.711 743.386 357.495
668.301 743.379 357.495
667.892 743.374 357.495
667.483 743.392 357.496
667.074 743.4 357.496
666.665 743.415 357.496
666.256 743.43 357.497
665.847 743.412 357.497
665.438 743.437 357.497
665.029 743.395 357.497
664.618 743.217 357.497
664.198 742.131 357.498
675.646 741.408 356.928
675.251 742.916 356.928
674.843 743.007 356.929
674.435 743.132 356.929
674.028 743.32 356.929
673.619 743.322 356.929
673.21 743.323 356.93
672.801 743.328 356.93
672.392 743.344 356.93
671.983 743.348 356.93
671.574 743.353 356.931
671.165 743.403 356.931
670.755 743.36 356.931
670.346 743.368 356.931
669.937 743.372 356.932
669.528 743.378 356.932
669.119 743.386 356.932
668.71 743.395 356.932
668.301 743.395 356.933
667.892 743.411 356.933
667.483 743.388 356.933
667.074 743.414 356.933
666.665 743.408 356.934
666.256 743.412 356.934
665.847 743.42 356.934
665.438 743.41 356.935
665.027 743.264 356.935
664.614 742.876 356.935
664.19 741.279 356.935
675.236 741.331 356.366
674.84 742.681 356.366
674.434 743.0 356.366
674.025 743.066 356.367
673.618 743.299 356.367
673.209 743.322 356.367
672.8 743.327 356.367
672.391 743.332 356.368
671.982 743.337 356.368
671.573 743.344 356.368
671.164 743.35 356.368
670.755 743.356 356.369
670.346 743.36 356.369
669.937 743.37 356.369
669.528 743.382 356.369
669.119 743.374 356.37
668.71 743.394 356.37
668.301 743.393 356.37
667.892 743.388 356.37
667.483 743.398 356.371
667.073 743.393 356.371
666.664 743.404 356.371
666.255 743.408 356.371
665.845 743.31 356.372
665.435 743.23 356.372
665.019 742.466 356.372
664.599 741.354 356.372
674.826 741.255 355.804
674.428 742.444 355.804
674.024 743.0 355.804
673.616 743.08 355.804
673.209 743.309 355.805
672.8 743.32 355.805
672.391 743.33 355.805
671.982 743.33 355.805
671.573 743.34 355.806
671.164 743.343 355.806
670.755 743.347 355.806
670.346 743.363 355.806
669.937 743.365 355.807
669.528 743.371 355.807
669.118 743.371 355.807
668.709 743.379 355.807
668.3 743.384 355.808
667.891 743.381 355.808
667.482 743.388 355.808
667.073 743.381 355.809
666.663 743.287 355.809
666.253 743.177 355.809
665.842 743.012 355.809
665.422 741.823 355.809
674.006 741.104 355.242
673.607 742.21 355.242
673.206 743.034 355.242
672.797 743.09 355.242
672.39 743.216 355.243
671.981 743.327 355.243
671.572 743.333 355.243
671.163 743.34 355.243
670.754 743.347 355.244
670.345 743.35 355.244
669.936 743.357 355.244
669.527 743.354 355.244
669.118 743.37 355.245
668.709 743.371 355.245
668.3 743.374 355.245
667.89 743.313 355.245
667.48 743.218 355.246
667.07 743.137 355.246
666.66 742.978 355.246
666.243 742.208 355.246
665.827 741.501 355.247
673.188 741.19 354.68
672.784 741.668 354.68
672.378 742.062 354.68
671.974 742.562 354.68
671.564 742.512 354.681
671.159 742.939 354.681
670.753 743.196 354.681
670.344 743.253 354.681
669.93 742.783 354.682
669.517 742.346 354.682
669.11 742.534 354.682
668.702 742.721 354.682
668.292 742.63 354.683
667.887 742.969 354.683
667.475 742.755 354.683
667.061 742.15 354.683
666.645 741.443 354.684
670.324 741.193 354.119
669.594 741.057 371.43
669.19 741.534 371.43
668.781 741.551 371.43
668.368 741.148 371.43
667.958 741.073 371.43
667.558 741.956 371.43
667.153 742.371 371.431
666.737 741.727 371.431
670.005 741.286 370.867
669.608 742.48 370.867
669.204 742.964 370.867
668.795 742.978 370.867
668.386 742.972 370.867
667.977 742.991 370.868
667.568 742.992 370.868
667.159 742.994 370.868
666.75 743.018 370.868
666.339 742.86 370.868
665.929 742.714 370.869
665.507 741.503 370.869
670.821 741.121 370.304
670.426 742.468 370.304
670.022 742.949 370.304
669.613 742.966 370.304
669.204 742.957 370.305
668.795 742.972 370.305
668.386 742.981 370.305
667.976 742.962 370.305
667.568 743.017 370.305
667.159 742.994 370.306
666.75 743.014 370.306
666.341 743.014 370.306
665.932 743.064 370.306
665.521 742.935 370.306
665.101 741.768 370.307
671.645 741.664 369.741
671.245 742.539 369.741
670.84 742.942 369.741
670.431 742.939 369.742
670.022 742.946 369.742
669.613 742.957 369.742
669.204 742.963 369.742
668.794 742.97 369.742
668.385 742.967 369.742
667.977 742.994 369.743
667.567 742.978 369.743
667.159 743.016 369.743
666.749 743.004 369.743
666.34 743.005 369.743
665.931 743.029 369.744
665.522 743.051 369.744
665.114 743.067 369.744
664.698 742.427 369.744
664.281 741.687 369.744
672.054 741.664 369.179
671.658 742.929 369.179
671.249 742.93 369.179
670.839 742.931 369.179
670.43 742.944 369.179
670.021 742.952 369.179
669.612 742.95 369.179
669.203 742.979 369.18
668.794 742.961 369.18
668.386 743.013 369.18
667.977 743.045 369.18
667.569 743.131 369.18
667.16 743.181 369.18
666.75 743.072 369.181
666.341 743.081 369.181
665.931 743.034 369.181
665.522 743.045 369.181
665.113 743.052 369.181
664.704 743.074 369.182
664.295 743.074 369.182
663.879 742.351 369.182
663.459 741.287 369.182
672.063 742.614 368.616
671.657 742.936 368.616
671.248 742.936 368.616
670.839 742.938 368.616
670.43 742.945 368.617
670.021 742.958 368.617
669.615 743.188 368.617
669.206 743.275 368.617
668.797 743.266 368.617
668.388 743.312 368.617
667.979 743.301 368.618
667.57 743.322 368.618
667.161 743.313 368.618
