VERSION 0.7
FIELDS x y z
SIZE 4 4 4
TYPE F F F
COUNT 1 1 1
WIDTH 1148
HEIGHT 1
VIEWPOINT 0.0 0.0 0.0 1.0 0.0 0.0 0.0
POINTS 1148
DATA ascii
648.712905616 737.722538789 375.775821604
648.274562957 737.138770976 375.775965601
647.823806361 736.302988883 375.776146148
647.421438161 736.449535531 375.776184226
647.005643052 736.323503626 375.776261836
646.609180234 736.589934936 375.776282526
646.16100997 735.806657744 375.776455459
645.379435347 736.569956308 375.776463419
645.00151202 737.212756229 375.776429523
644.59280098 737.23053742 375.776486276
644.183556982 737.237499069 375.776544598
643.772394548 737.205514702 375.776608568
643.314689546 736.228673624 375.776809573
648.713032568 737.726692609 375.213321002
648.302399619 737.705457294 375.213383413
647.891187977 737.672473968 375.213447528
647.483242088 737.70578841 375.213502028
647.065455788 737.53933351 375.213585501
646.638011088 737.176804251 375.213697411
646.223931995 737.085609035 375.213769969
645.778010581 736.347985582 375.21393628
645.404218302 737.07464957 375.213890222
645.001523208 737.214559958 375.213929262
644.592441514 737.22481653 375.213987106
644.184378839 737.255760114 375.214041949
643.775065226 737.261308512 375.214100476
643.367534953 737.303060355 375.214153752
642.923678009 736.607347519 375.214313985
648.712557427 737.718623414 374.650822172
648.302526612 737.70961196 374.650882811
647.891430539 737.678974775 374.650946586
647.484502251 737.732947471 374.650998089
647.075628907 737.747433738 374.65105532
646.653004119 737.482753085 374.651153039
646.22773776 737.164446153 374.651258535
645.81872514 737.176104977 374.651316176
645.411194909 737.217857667 374.651369452
645.001904851 737.223884262 374.651427909
644.592985193 737.237430305 374.651485276
644.183602465 737.241575604 374.651544006
643.775771144 737.277215893 374.651598169
643.366550276 737.284647091 374.651656423
642.9583485 737.312766804 374.651711676
642.525839982 736.847437409 374.651838495
642.057064649 735.645858468 374.652072095
648.712499014 737.719014173 374.088322115
648.301889418 737.698252919 374.088384458
647.89269241 737.706168518 374.088442642
647.483749345 737.719239372 374.088500077
647.074713664 737.730430058 374.088557786
646.657183158 737.569168006 374.088640506
646.227864596 737.168597622 374.088757933
645.81871337 737.177442635 374.088815982
645.422620184 737.451377798 374.088835584
645.027362824 737.742281008 374.088852725
644.614345125 737.67263306 374.088922158
644.18435336 737.258396048 374.089041567
643.775897947 737.281366705 374.089097567
643.367649917 737.308547415 374.089152956
642.957989122 737.307047701 374.089212505
642.550042043 737.340337992 374.089267009
642.120079507 736.926694345 374.089386332
648.711861968 737.707658141 373.525823762
648.302526087 737.712754475 373.525882355
647.890341379 737.660017026 373.525949335
647.484247015 737.730919126 373.525998383
647.073752468 737.712493486 373.526060387
646.655733022 737.541305497 373.526144547
646.235884906 737.332993845 373.52623409
645.843939174 737.691126138 373.526241481
645.440412472 737.814154115 373.526282969
645.032882301 737.855908027 373.526336245
644.623985541 737.869918917 373.526393545
644.202238595 737.623059294 373.526488679
643.775399705 737.272828525 373.526598805
643.367336757 737.303766562 373.52665365
642.958463376 737.318252078 373.52671088
642.549613236 737.333209398 373.526768043
642.140577852 737.3444061 373.52682575
641.679956465 736.308359733 373.527035342
648.711479558 737.701471463 372.96332466
648.301911878 737.701862067 372.963383935
647.893224352 737.720120608 372.963440618
647.483123116 737.709679547 372.963501464
647.07656546 737.771176391 372.963551876
646.665885693 737.748990604 372.963614426
646.257776606 737.778991989 372.963669406
645.848671857 737.788780517 372.963727318
645.441535164 737.83852239 372.963779435
645.031666028 737.832793168 372.963839598
644.624483188 737.881598202 372.963891851
644.214544451 737.874456011 372.963952218
643.79865693 737.746548065 372.9640301
643.367902445 737.316827142 372.964151756
642.958011564 737.310656474 372.964211982
642.549439162 737.331252133 372.964268327
642.140889912 737.352317811 372.964324603
641.700557858 736.72816347 372.964474457
648.711629745 737.706096993 372.400823989
648.301807308 737.701315798 372.400884014
647.890803469 737.672551071 372.400947517
647.484871108 737.746741983 372.400996089
647.073403834 737.708569087 372.401060956
646.667217147 737.777596941 372.401110277
646.257486811 737.774685479 372.40117003
645.848243003 737.781650983 372.401228352
645.44099058 737.829043422 372.40128081
645.032951187 737.860459657 372.401335585
644.623521514 737.863651947 372.401394454
644.214625236 737.877672614 372.401451752
643.805427543 737.8855743 372.401509937
643.375112938 737.46478335 372.401630297
642.958161367 737.315274201 372.401711312
642.549890147 737.341984142 372.40176677
642.140993753 737.356002459 372.401824068
641.683198318 736.377325494 372.40202534
648.711964764 737.714474774 371.838322774
648.3030918 737.728968749 371.838380003
647.892227409 737.703034943 371.838443096
647.483608341 737.722683234 371.838499578
647.0761711 737.766323705 371.83855258
646.665745751 737.749302856 371.83861438
646.257798918 737.78259813 371.838668883
645.849134058 737.801316818 371.8387255
645.440909023 737.828964351 371.838780821
645.031827302 737.839220359 371.838838665
644.625038199 737.896018618 371.838889759
644.21350155 737.856437359 371.838954831
643.805786187 737.894431688 371.839008653
643.387142839 737.710577929 371.839094649
642.958589556 737.32554343 371.839209823
642.549067663 737.326863544 371.839268963
642.102180824 736.569641084 371.839438117
648.713203562 737.741200096 371.275818898
648.300903165 737.686114061 371.275886219
647.892308078 737.706249196 371.27594263
647.484106191 737.734366654 371.275997883
647.074028275 737.724398994 371.276058661
646.66786474 737.793896867 371.276107913
646.256513377 737.758077071 371.276172439
645.848589344 737.791835218 371.276226875
645.441869611 737.850041745 371.276277764
645.031606826 737.836321084 371.276339086
644.623775459 737.871960433 371.276393249
644.215156927 737.891619628 371.276449729
643.805588673 737.891998577 371.276509005
643.397526044 737.9229431 371.276563849
642.969925369 737.557247405 371.276676218
642.479062815 735.907277653 371.276974849
641.246353024 735.827108761 371.277164471
640.85178801 736.13206722 371.277179574
640.425712284 735.797329387 371.277287453
648.712149311 737.721374427 370.713321773
648.300937548 737.688388654 370.713385889
647.890582097 737.672786789 370.713447483
647.483908835 737.731936738 370.713498236
647.074132472 737.728090881 370.713558125
646.666277892 737.763258989 370.713612356
646.256918057 737.767869042 370.713671019
645.849179097 737.805384329 370.71372491
645.441440673 737.842910519 370.713778799
645.032266337 737.85128636 370.713836915
644.622999311 737.857780529 370.713895305
644.214658583 737.88307938 370.713950967
643.806919905 737.9206004 370.714004857
643.396078158 737.895126273 370.714067883
642.986974534 737.904937638 370.714125792
642.527582261 736.893843421 370.714331765
642.081167374 736.146202 370.714499529
641.665309529 736.018896499 370.714577324
641.31974088 737.318525999 370.714448167
640.915124845 737.419439536 370.714492863
640.499541071 737.297697935 370.714569851
640.069324259 736.878892263 370.714689923
639.633055244 736.337221317 370.714827814
648.712045005 737.720833517 370.150821852
648.300971708 737.690658734 370.150885559
647.892747225 737.718317453 370.15094088
647.481812543 737.690956671 370.151004179
647.074746276 737.742128247 370.151056089
646.664459546 737.727921492 370.151117481
646.256581809 737.762619488 370.15117178
645.849560958 737.81471305 370.151223557
645.441081101 737.837187468 370.151279629
645.031999347 737.847442818 370.151337473
644.623265206 737.864755023 370.151394294
644.21416029 737.874540167 370.151452206
643.806421589 737.912060717 370.151506096
643.397386108 737.923255446 370.151563804
642.988281183 737.933040402 370.151621716
642.579384709 737.947057121 370.151679015
642.170997787 737.971418191 370.151734813
641.749484076 737.729293434 370.151829261
641.323592626 737.398296573 370.151936598
640.914974002 737.417953888 370.151993078
640.505799643 737.426329258 370.152051195
640.097968498 737.461973119 370.152105357
639.688168616 737.457649817 370.152165315
639.206731078 735.999016531 370.152436196
648.712357098 737.728745884 369.588320704
648.300867282 737.690115379 369.588385638
647.890419351 737.672636074 369.588447505
647.48448699 737.746826986 369.588496076
647.072765139 737.703485955 369.588561694
646.666254645 737.765940228 369.588611967
646.254902652 737.730107647 369.588676496
645.848553211 737.79583146 369.588726295
645.441624942 737.849804531 369.588777799
645.032056767 737.850185078 369.588837075
644.623021582 737.861385824 369.588894782
644.214472758 737.88246015 369.588951057
643.805112673 737.887065127 369.589009721
643.397211798 737.921293387 369.589064088
642.988917458 737.947533967 369.589119614
642.579673682 737.954500129 369.589177935
642.170615076 737.965225404 369.589235711
641.762783881 738.00086823 369.589289873
641.351386925 737.96412288 369.589354534
640.938232945 737.891708296 369.589424368
640.509490409 737.50283178 369.5895401
640.09765524 737.457190292 369.589606051
639.68873567 737.470738121 369.589663417
639.213499312 736.137994462 369.58991604
648.711117529 737.705158093 369.025824125
648.30185099 737.711662133 369.025882513
647.891356707 737.693241852 369.025944516
647.482807684 737.714312137 369.026000792
647.075995322 737.770638214 369.026051954
646.664435474 737.730585997 369.026117095
646.256766907 737.769530328 369.026170778
645.846804438 737.761906368 369.026231215
645.438695634 737.791913487 369.026286195
645.031373665 737.837894085 369.026338858
644.622893832 737.860368972 369.02639493
644.213603723 737.866394533 369.026453387
643.806490363 737.916610091 369.026505436
643.396690329 737.912283686 369.026565395
642.989160195 737.954038349 369.026618671
642.579823754 737.959123309 369.026677265
642.170811453 737.97078862 369.026734904
641.761706565 737.980574328 369.026792817
641.35399116 738.018567811 369.026846638
640.945302796 738.036809337 369.026903324
640.52524777 737.824297237 369.026993477
640.097156873 737.448649575 369.027107289
639.685227502 737.401095685 369.027173518
648.712170893 737.728118945 368.463320795
648.300009375 737.675852267 368.463387707
647.892549162 737.719026387 368.463440777
647.483096287 737.721747625 368.463499714
647.075635796 737.764916104 368.463552784
646.665951959 737.762948627 368.463612401
646.256638263 737.768495332 368.463670928
645.846422084 737.755720818 368.463732112
645.437664943 737.772566108 368.463789001
645.030111152 737.813840505 368.463842346
644.623970395 737.883800782 368.463891531
644.214147485 737.879009999 368.463951558
643.805945566 737.907126798 368.464006811
643.39758157 737.931953281 368.464062542
642.988615361 737.944554305 368.464120046
642.579742239 737.959045085 368.464177276
642.171007931 737.976353906 368.464234097
641.761625166 737.980498453 368.464292828
641.353214874 738.004385087 368.464348695
640.945453071 738.041436653 368.464402653
640.523082775 737.781922442 368.464499622
640.097538595 737.457975477 368.464605937
639.688248315 737.46399756 368.464664395
639.224013136 736.354587904 368.464884627
648.711741951 737.720987624 367.900821829
648.301109211 737.699756541 367.90088424
647.890706779 737.683200916 367.900945973
647.484983449 737.761635341 367.900993929
647.072890884 737.710768472 367.901060637
646.667121211 737.788262109 367.90110873
646.25688107 737.775001124 367.901169985
645.846364088 737.756120038 367.901232055
645.437629655 737.773426321 367.901288876
645.029705761 737.807187288 367.901343311
644.622846663 737.862564587 367.901394611
644.214065994 737.878932244 367.901451569
643.805400898 737.897646138 367.901508186
643.397106309 737.923881641 367.901563713
642.988834992 737.950589608 367.901619171
642.579730085 737.96037494 367.901677083
642.170926282 737.976272954 367.901734109
641.761937472 737.988415146 367.90179168
641.353156604 738.004778761 367.901848638
640.943473199 738.002820028 367.901908253
640.506560871 737.44808927 367.902048039
640.096438261 737.437214283 367.902108948
639.688352331 737.46768578 367.90216386
639.255216351 736.98961831 367.902292527
638.804870454 736.162173793 367.902471865
638.382269063 735.897968132 367.902569515
648.711197158 737.711504427 367.338323205
648.301513697 737.709544565 367.33838282
647.893798037 737.747532876 367.338436642
647.483303601 737.729109493 367.338498646
647.076700353 737.789680778 367.338549193
646.664676922 737.740217383 367.338615698
646.258883976 737.817238557 367.338663859
645.847139371 737.773435593 367.338729543
645.438335193 737.789325993 367.33878657
645.03045773 737.824029536 367.338840869
644.621723389 737.841337699 367.33889769
644.212687723 737.852528667 367.338955398
643.806361685 737.918727575 367.339005129
643.396885869 737.920983119 367.339064133
642.989077836 737.957096152 367.339118227
642.57971826 737.96171147 367.339176889
642.170613326 737.971496238 367.339234802
641.761878967 737.988804025 367.339291623
641.353330097 738.009877412 367.339347898
640.944641747 738.028119219 367.339404584
640.505554203 737.429229577 367.339550774
640.096240947 737.434785214 367.3396093
639.687969658 737.461493744 367.339664758
639.280161624 737.497606777 367.339718852
638.870662836 737.499395969 367.339777924
638.452972878 737.3348969 367.339861113
637.973592105 735.918017804 367.340125938
648.713617103 737.762208112 366.775815851
648.300667546 737.693943514 366.775885083
647.893600996 737.745109354 366.775936994
647.482851933 737.721516803 366.775999747
647.075553195 737.767969017 366.776052341
646.667930526 737.807845112 366.77610589
646.256277892 737.76590925 366.776171303
645.848146296 737.795453683 366.77622635
645.439156912 737.807584218 366.776283922
645.029333956 737.802792495 366.776343949
644.621641893 737.841259849 366.776397701
644.213115991 737.862799494 366.776453909
643.804381257 737.880099667 366.776510731
643.398217361 737.949590208 366.776559984
642.987768897 737.932100092 366.776621852
642.579520663 737.959276667 366.776677242
642.170786452 737.976587462 366.776734063
641.762029121 737.993428897 366.776790952
641.352623074 737.997100794 366.776849751
640.943472478 738.005958595 366.776907798
640.506490573 737.449815337 366.777047789
640.079098888 737.088362326 366.777159543
639.649843647 736.689077433 366.777276784
639.280218941 737.50034697 366.777218455
638.87118352 737.511542921 366.777276162
638.462472133 737.52931706 366.777332916
637.987447094 736.200863364 366.777584917
648.711914186 737.729213938 366.213320636
648.302925284 737.741354249 366.213378207
647.891689836 737.707887648 366.213442392
647.485040204 737.767517297 366.213493075
647.074336802 737.744851715 366.213555694
646.667316493 737.796956278 366.213607469
646.258419533 737.810963125 366.213664769
645.847184451 737.77750395 366.213728953
645.438380764 737.793404314 366.213785979
645.031985579 737.858199464 366.213835913
644.620055184 737.810624792 366.213902144
644.21203887 737.84250954 366.213956851
643.804763016 737.889426321 366.214009378
643.396144114 737.909077996 366.21406586
642.9891003 737.960705395 366.214117704
642.579439371 737.959202954 366.214177253
642.170195503 737.966167236 366.214235575
641.761993852 737.994289487 366.214290828
641.353352196 738.013479228 366.214347376
640.944293474 738.024202152 366.214405152
640.528892542 737.906172393 366.214481602
640.075772555 737.022411316 366.214669108
639.639156993 736.473705155 366.21480802
639.279234389 737.481936243 366.214721125
638.871171551 737.512876537 366.214775969
638.452068926 737.319699017 366.214863317
637.973382858 735.916923103 366.215126097
648.711577966 737.723964947 365.650821397
648.301339005 737.710727935 365.650882649
647.892812838 737.732262221 365.650938857
647.483545345 737.738746895 365.650997248
647.077613258 737.812943354 365.651045819
646.665520841 737.762079492 365.651112527
646.257967772 737.803368555 365.65116587
645.847635543 737.788238119 365.651227396
645.438137094 737.790034175 365.651286467
645.030467642 737.82896055 365.651340153
644.620876948 737.828883957 365.651399496
644.211262537 737.828325876 365.651458909
643.804218584 737.879950456 365.651510753
643.396803741 737.924045622 365.651563689
642.988115474 737.942289122 365.651620375
642.579705298 737.966178106 365.651676242
642.171202474 737.988186265 365.651732381
641.761796551 737.9918607 365.65179118
641.353201335 738.011993204 365.651847591
640.944327732 738.026474207 365.651904823
640.535454434 738.040961414 365.651962053
640.123758158 737.998139566 365.652027595
639.68976135 737.502596526 365.652158797
639.280241276 737.503953581 365.652217931
638.853149408 737.148587124 365.652328803
638.381850584 735.895779012 365.652569832
648.712886309 737.75210211 365.088317317
648.299474071 737.674444665 365.088387911
647.893982077 737.757575421 365.088435186
647.484135478 737.752303714 365.088495282
647.075539863 737.772428133 365.088551695
646.667546979 737.804788539 365.088606333
646.256890461 737.783074747 365.088668814
645.84831817 737.803672663 365.088725158
645.43916713 737.812521436 365.088783206
645.03006207 737.822303666 365.088841119
644.62114256 737.835852715 365.088898485
644.21317269 737.868680321 365.088953056
643.80332648 737.863416512 365.089013151
643.396259171 737.914566936 365.089065064
642.988010919 737.941743134 365.089120454
642.579299522 737.959517086 365.089177208
642.171213496 737.989986609 365.08923212
641.76213195 738.000246189 365.089289964
641.352540677 738.000157845 365.089349308
640.94452427 738.032040714 365.089404015
640.535697292 738.04746824 365.089461109
640.127055242 738.06664999 365.089517659
639.696486738 737.640704635 365.089638767
639.27976589 737.495879403 365.089719102
638.867770112 737.446977384 365.089785526
638.381769102 735.895701445 365.090069844
648.711669587 737.728978133 364.52582067
648.301662212 737.720442527 364.52588124
647.891745868 737.713754938 364.525941541
647.485559644 737.782792192 364.52599086
647.075482047 737.772831019 364.526051636
646.666006473 737.775091452 364.52611064
646.259703573 737.841760095 364.526160302
645.848329118 737.805471503 364.526224897
645.439363428 737.818083055 364.526282399
645.031995431 737.863129256 364.526335198
644.620250697 737.81932366 364.526400883
644.212466033 737.855911131 364.526454908
643.803221966 737.86287137 364.52651323
643.39527447 737.896153201 364.526567734
642.988693606 737.957178899 364.526618215
642.580422224 737.983885549 364.526673673
642.170923488 737.985675774 364.526732745
641.761911451 737.997346444 364.526790384
641.353663411 738.024526966 364.526845774
640.943724846 738.017388254 364.526906141
640.535268438 738.040338706 364.526962144
640.126257137 738.052024316 364.52701978
639.691404393 737.539104983 364.527153502
639.279314018 737.488282577 364.527220204
638.87083431 737.510760002 364.527276276
638.423762923 736.749791033 364.527445973
648.711402866 737.725140045 363.963321227
648.301349043 737.715661487 363.963381933
647.894374552 737.768696215 363.963433573
647.48371803 737.746982327 363.963496054
647.077137239 737.808009528 363.963546534
646.666619327 737.789109547 363.963608607
646.25774653 737.803606907 363.963665836
645.848340357 737.807276265 363.963724635
645.437730501 737.786509748 363.963786979
645.030223344 737.828730857 363.963840187
644.62192931 737.85497764 363.963895712
644.211156844 737.830909995 363.963958534
643.803603771 737.872198965 363.964011877
643.395540374 737.903127883 363.964066723
642.988125586 737.947224178 363.964119659
642.579414505 737.965004521 363.964176412
642.171166253 737.99218072 363.964231802
641.761482532 737.990215594 363.964291418
641.35318834 738.016459182 363.964346944
640.944013953 738.024833988 363.964405061
640.534885792 738.034147234 363.964463041
640.107604785 737.674941093 363.96457447
639.68768906 737.465256908 363.964664212
639.279510506 737.49384805 363.964719397
638.870289605 737.50127859 363.964777651
638.434355432 736.966405253 363.964914557
648.712873241 737.756566585 363.400816669
648.300410174 737.6981782 363.400884469
647.894269894 737.768148159 363.400933652
647.484215237 737.75865268 363.400994361
647.075295648 737.772200132 363.401051728
646.667371902 737.805964108 363.401106163
646.257433221 737.798823046 363.40116653
645.847887952 737.799668628 363.401225739
645.43873756 737.808530563 363.401283785
645.028683148 737.799040065 363.401344493
644.621245968 737.842681759 363.401397495
644.213414355 737.878316125 363.401451658
643.803128404 737.864125163 363.401513048
643.396014877 737.914337337 363.401565097
642.987141112 737.92881505 363.401622329
642.579194033 737.962105341 363.401676832
642.171200677 737.994456159 363.401731472
641.761516975 737.992491408 363.401791088
641.352921406 738.012616767 363.401847501
640.944766079 738.041679431 363.401902618
640.535591511 738.050050572 363.401960735
640.108866647 737.702134648 363.402070526
639.687561194 737.464237707 363.40216436
639.279336224 737.491886555 363.402219682
638.870856608 737.51436586 363.402275753
638.395532649 736.179843821 363.402528634
648.711888577 737.738153601 362.83831934
648.301579607 737.723495347 362.838380797
647.891895572 737.721523828 362.838440415
647.485291865 737.782085805 362.838490963
647.075191055 737.771653394 362.838551807
646.667429016 737.808700165 362.838605766
646.257374933 737.799216342 362.838666473
645.847459441 737.79254605 362.838726772
645.438262387 737.800460709 362.838784955
645.03182067 737.864311216 362.838835026
644.620260744 737.8242574 362.838900167
644.212800322 737.867427289 362.838953238
643.803069912 737.864514324 362.839012992
643.39577105 737.910964001 362.839065586
642.988310327 737.954127779 362.839118658
642.579575612 737.971428328 362.83917548
642.169961349 737.970873257 362.839234892
641.761805999 737.99993545 362.839290009
641.353743161 738.030875743 362.839344853
640.944545441 738.038776866 362.839403038
640.536413377 738.068311805 362.839458086
640.124137476 738.013723046 362.839525335
639.709315219 737.907440925 362.839600081
639.289835674 737.706611596 362.839688539
638.856725842 737.229074966 362.839817129
648.71067236 737.715039871 362.275822692
648.301197276 737.717310269 362.275881694
647.893666716 737.759056283 362.275934971
647.482871246 737.734521627 362.275997861
647.076498954 737.799781531 362.276047728
646.666652971 737.794522329 362.276107822
646.255926972 737.77139801 362.276170507
645.848698646 737.819279645 362.276222894
645.437277733 737.782047915 362.276287626
645.030720155 737.843546356 362.276338038
644.621291094 737.846751055 362.276396905
644.211908056 737.850890056 362.276455636
643.803034666 737.865375384 362.276512867
643.396198818 737.921224675 362.276564098
642.987973787 737.948872302 362.27661942
642.579262711 737.966652739 362.276676173
642.169555731 737.964215433 362.276735858
641.761701285 737.999386267 362.276790088
641.353684994 738.031271485 362.276844795
640.944163054 738.032590658 362.276903936
640.535197021 738.045195254 362.276961439
640.127435316 738.082248794 362.277015397
639.71814498 738.088269749 362.277073855
639.309711697 738.111689655 362.27712979
638.874743723 737.596431032 362.277263851
638.426953332 736.820865627 362.277435665
638.011019127 736.692009945 362.277513684
637.57500672 736.155548405 362.27765082
637.155644652 735.957103972 362.277738933
636.761147651 736.263443151 362.277753835
636.338546237 735.99923702 362.277851485
648.712628799 737.756333977 361.713316703
648.300374921 737.702192303 361.713383887
647.892635923 737.739706836 361.713437777
647.483415166 737.747140292 361.713496031
647.074564896 737.762094978 361.713553193
646.667058244 737.804326334 361.7136064
646.255683659 737.76803511 361.713670995
645.848107234 737.808850019 361.713724407
645.439558503 737.829926224 361.713780682
645.029318551 737.816669095 361.713841936
644.621001563 737.842449905 361.713897529
644.211664455 737.847521326 361.713956125
643.802999762 737.8662434 361.714012741
643.397923629 737.957816529 361.714058791
642.987429124 737.939391736 361.714120795
642.57892656 737.961405158 361.714176934
642.170470087 737.984354294 361.714232937
641.761295644 737.992727973 361.714291054
641.353232978 738.023671745 361.714345898
640.943965967 738.030166196 361.714404287
640.534675673 738.036187997 361.714462745
640.126798075 738.070888813 361.714517044
639.71787843 738.084435138 361.714574411
639.309375393 738.106438972 361.714630551
638.878736398 737.679062595 361.714751866
638.461692499 737.527679107 361.714833154
638.053606671 737.558152673 361.714888065
637.64491827 737.576393446 361.714944751
637.232852714 737.526074886 361.715011381
636.828283086 737.627930527 361.71505594
636.408508934 737.421120407 361.715145266
635.929776687 736.017406995 361.715408181
648.710949146 737.723812077 361.15082142
648.302169228 737.740194963 361.150878375
647.890678958 737.701555245 361.150943311
647.484329703 737.767282818 361.150993109
647.074807846 737.768603684 361.151052249
646.665216152 737.768506785 361.151111595
646.255880322 737.773604155 361.151170187
645.846659431 737.781034883 361.151228441
645.438828943 737.816692094 361.151282601
645.030765425 737.847618567 361.151337447
644.620873244 737.841421489 361.151397678
644.212277781 737.861549011 361.15145409
643.803612445 737.880258017 361.151510708
643.396800027 737.936582966 361.151561871
642.988575113 737.964232943 361.151617192
642.578196667 737.948164258 361.151678854
642.170157001 737.979574946 361.15173363
641.761561525 737.999702185 361.151790043
641.352502756 738.010424169 361.151847819
640.943930702 738.031026879 361.151904162
640.53471006 738.038462684 361.151962416
640.126739657 738.071279478 361.152016988
639.717773736 738.08388633 361.152074491
639.309826485 738.117173143 361.152128995
638.8779372 737.664414742 361.152253991
638.461333112 737.521959816 361.152333983
638.053270201 737.552898606 361.152388827
637.645161026 737.582898204 361.152443808
637.236125429 737.594090583 361.152501516
636.828479551 737.633495531 361.152555133
636.419559833 737.647040351 361.1526125
635.950693881 736.443621771 361.152846366
648.710242744 737.711048058 360.588323271
648.300118851 737.700147036 360.588384183
647.892704638 737.744254988 360.588437118
647.482997144 737.741807245 360.588496804
647.075791475 737.790148842 360.588549125
646.664487084 737.755282617 360.588613513
646.255173929 737.760840322 360.588672038
645.847713031 737.804000529 360.58872511
645.437751113 737.796387755 360.588785546
645.03130966 737.860243622 360.588835616
644.620536986 737.836171745 360.588898439
644.211385733 737.845016195 360.588956488
643.804573231 737.901339454 360.589007651
643.395954649 737.920997614 360.589064131
642.987914738 737.952403319 360.589118908
642.578323664 737.952319018 360.589178252
642.169519792 737.968215622 360.589235278
641.760808609 737.985993898 360.589292031
641.353208916 738.026336438 360.589345511
640.943455357 738.022953548 360.589405333
640.535647328 738.059066675 360.589459427
640.126634944 738.070730294 360.589517067
639.718317415 738.096500104 360.589572661
639.309721823 738.116624993 360.589629074
638.90107988 738.135808906 360.589685623
638.488781433 738.080762446 360.589752938
638.060341876 737.698036677 360.589867778
637.645125891 737.58376152 360.589943683
637.236646363 737.606242611 360.589999754
636.827981137 737.624953873 360.590056372
636.419130992 737.639911099 360.590113534
635.95072536 736.445837412 360.590346045
648.710508657 737.718022928 360.025822259
648.299852024 737.696306784 360.02588474
647.892183248 737.735246885 360.025938424
647.484490486 737.773700044 360.025992179
647.07323221 737.739770004 360.026056431
646.665100906 737.76932036 360.026111477
646.254281788 737.744305626 360.026174437
645.847678058 737.804867135 360.026224985
645.438456842 737.812291281 360.026283239
645.029027577 737.815491845 360.026342107
644.620733191 737.841731485 360.026397633
644.211790251 737.854804878 360.026455068
643.804954625 737.910658681 360.026506299
643.396243539 737.92843893 360.026563052
642.987022527 737.935867214 360.026621306
642.578103248 737.949420965 360.026678672
642.170040522 737.980363515 360.026733516
641.760889023 737.989202981 360.026791565
641.352849566 738.020617899 360.026846341
640.94367503 738.028989698 360.026904458
640.535403547 738.05569428 360.026959916
640.126762053 738.074887311 360.027016464
639.717726395 738.086078467 360.027074173
639.3096636 738.117019607 360.027129017
638.901044953 738.136676452 360.027185498
638.492055754 738.148810747 360.027243069
638.078715534 738.072615344 360.027313452
637.644696926 737.576629729 360.027444717
637.236842563 737.611802256 360.027498948
636.828154301 737.630045849 360.027555633
636.418841017 737.635600922 360.027614159
635.947148553 736.374801558 360.027856348
648.709662862 737.702429115 359.463324521
648.301623826 737.733852587 359.463379295
647.890526641 737.70319284 359.463443073
647.483715075 737.759535088 359.463494233
647.073891865 737.754738194 359.46355426
646.664045937 737.749480119 359.463614355
646.257094687 737.80298665 359.463665926
645.846183348 737.776099742 359.463729157
645.439093335 737.826789266 359.463781137
645.028506525 737.806490603 359.463843412
644.619748555 737.823319066 359.463900303
644.213029067 737.881530577 359.463951192
643.804896304 737.911051319 359.464006242
643.396439994 737.934003745 359.464062245
642.987450832 737.946138793 359.464119816
642.577558645 737.939941621 359.464180047
642.170098099 737.983108972 359.464233118
641.761062437 737.994300034 359.464290826
641.352073113 738.006431791 359.464348398
640.94370957 738.031267487 359.464404128
640.535044368 738.049979219 359.464460745
640.126726788 738.075747994 359.46451634
639.718316518 738.099635098 359.464572207
639.309628289 738.11787935 359.464628892
638.901287829 738.143183653 359.464684554
638.491696427 738.143092678 359.464743898
638.082429735 738.149593618 359.464802287
637.646049945 737.605673846 359.464940505
637.23604318 737.597150642 359.465001072
636.827795201 737.624332387 359.465056462
636.407951448 737.416109297 359.465145992
635.925932286 735.945668516 359.465418586
648.709928979 737.709408121 358.900823509
648.300407423 737.710735096 358.900882648
647.89120961 737.718634338 358.900940834
647.482498103 737.736406034 358.900997588
647.073995696 737.758422654 358.901053726
646.664589625 737.762094082 358.901112525
646.255577375 737.773760426 358.901170165
645.846565343 737.785431189 358.901227804
645.436418298 737.77406015 358.901288784
645.028332507 737.804534467 358.901343696
644.620917455 737.848625403 358.901396633
644.21470712 737.917173181 358.901446023
643.804976932 737.914264728 358.901505776
643.395524561 737.916996212 358.901564711
642.986952636 737.937601553 358.901621055
642.578009714 737.950675322 358.90167849
642.169761508 737.97785246 358.90173388
641.671000603 736.167538956 358.902055766
641.317819736 737.312633491 358.901949021
640.943280679 738.0241372 358.901905162
640.535680926 738.064478518 358.901958642
640.126622093 738.075199186 358.902016419
639.71876762 738.110369457 358.90207065
639.309616287 738.119212308 358.902128699
638.900488293 738.128528937 358.902186679
638.492124417 738.153357864 358.90224241
638.083713893 738.177239798 358.902298278
637.668405427 738.061087199 358.902374455
637.237257238 737.623373708 358.902497269
636.827760011 737.625194574 358.902556337
636.36614216 736.56891908 358.902768863
648.710218045 737.71685301 358.338322429
648.299908797 737.702189116 358.338383887
647.890943051 737.714799541 358.33844139
647.483852992 737.765488123 358.33849337
647.072385917 737.72731927 358.338558237
646.663999055 737.751681563 358.338614035
646.254523494 737.753942277 358.338673039
645.845650262 737.7684308 358.338730269
645.43886089 737.825223606 358.338781364
645.030357797 737.847226312 358.338837504
644.621970583 737.871581461 358.338893303
644.212819427 737.880427885 358.338951352
643.804339872 737.902908412 358.339007423
643.395026652 737.908464802 358.339065949
642.986893992 737.937987612 358.339120999
642.578437788 737.9609422 358.339177001
642.16942532 737.972604127 358.339234641
641.666195979 736.071577282 358.339569684
641.299775491 736.947895389 358.33950192
640.943407519 738.028288764 358.33940456
640.535483542 738.062048039 358.339458995
640.127003607 738.084520858 358.339515067
639.718963982 738.115932392 358.339569843
639.309882182 738.126186802 358.339627687
638.900406681 738.128448738 358.339686691
638.492297687 738.158452004 358.339741671
638.083725304 738.179048039 358.339798015
637.675453783 738.205751869 358.339853474
637.246969352 737.822115117 358.339968445
636.788433328 736.828403509 358.340171897
648.71006673 737.715357773 357.775822646
648.301101192 737.727972427 357.775880148
647.891023406 737.7180074 357.775940924
647.482405245 737.737674116 357.775997404
647.072674895 737.734762373 357.776057158
646.663778556 737.748781817 357.776114456
646.255600021 737.777373335 357.776169641
645.848139067 737.820532414 357.776222713
645.439659724 737.843017265 357.776278783
645.030832116 737.858432006 357.776335879
644.622676594 737.887490722 357.776390996
644.212205348 737.86953811 357.776452931
643.803794986 737.893423333 357.776508799
643.395732473 737.924370207 357.776563642
642.986881898 737.93931869 357.776620806
642.578587664 737.965561432 357.776676331
642.169922911 737.984282282 357.776732947
641.670820645 736.167038837 357.777055839
641.309417254 737.145208585 357.776973304
640.943812116 738.038079044 357.77690314
640.535818774 738.070430144 357.776957779
640.127362121 738.093375614 357.777013783
639.71846543 738.107387914 357.777071082
639.30952304 738.120472494 357.777128516
638.900603174 738.134014305 357.777185884
638.492702275 738.168242095 357.777240251
638.084014439 738.186494337 357.777296935
637.675210242 738.202384361 357.777353962
637.255688662 738.000701685 357.777442544
648.70975368 737.710579176 357.213323339
648.300070381 737.708622604 357.213382954
647.890942007 737.717931526 357.213440936
647.483319231 737.757805458 357.213494484
647.074932433 737.782169068 357.213550282
646.66439153 737.762802357 357.213612422
646.257023881 737.807855608 357.21366522
645.848196384 737.823272607 357.213722315
645.439137853 737.833999385 357.213780091
645.029662236 737.836258971 357.213839095
644.620371799 737.842277857 357.213897553
644.212216847 737.871348136 357.213952669
643.803482011 737.88864624 357.214009492
643.395419679 737.919596781 357.214064334
642.986939711 737.942068942 357.214120407
642.577649459 737.948091589 357.214178865
642.166949247 737.925490768 357.214241474
641.686676498 736.490503749 357.214508926
641.276517125 736.478882454 357.214569943
640.944263199 738.048813027 357.214401583
640.535968618 738.075048718 357.214457109
640.127767093 738.103173508 357.214512362
639.71812933 738.102141367 357.214571843
639.308931989 738.110050198 357.214630028
638.900683968 738.137231097 357.214685417
638.492690186 738.169573266 357.214740058
638.084117936 738.190172029 357.214796402
637.675452998 738.208889119 357.214853019
637.266510048 738.221962323 357.214910454
636.76286865 736.31257035 357.21524671
648.710945927 737.73635948 356.6508196
648.299803178 737.704774738 356.650883512
647.892875572 737.758761253 356.650935014
647.483885622 737.770880319 356.650992588
647.075244434 737.790079556 356.651049135
646.664865446 737.773999871 356.651110798
646.256362988 737.796015456 356.651166937
645.847813863 737.817083674 356.651223213
645.438245479 737.817459988 356.65128249
645.030136911 737.847471903 356.651337469
644.62089245 737.854424151 356.651395792
644.212505648 737.878787665 356.65145159
643.804049245 737.901738212 356.651507593
643.394457899 737.901648364 356.651566937
642.986765947 737.940117976 356.65162069
642.576780849 737.93203462 356.651681193
642.168579069 737.960154239 356.651736447
641.690612608 736.57198698 356.651997108
641.286967826 736.692617837 356.652038944
640.944575384 738.056727275 356.651900435
640.535701879 738.071210252 356.651957666
640.127222369 738.09369172 356.652013737
639.718140787 738.103950548 356.652071581
639.308896645 738.110909283 356.652129903
638.901111856 738.147494215 356.652183929
638.492377275 738.16479749 356.652240751
638.083202809 738.173170699 356.652298868
637.675163249 738.204583549 356.652353643
637.266289744 738.219066526 356.652410874
636.786154089 736.786862665 356.652677922
648.710540592 737.729707392 356.088320565
648.299860695 737.707518973 356.088383114
647.891821205 737.738933233 356.08843789
647.482507712 737.744484075 356.088496416
647.074653239 737.779654346 356.088550647
646.66547893 737.788030751 356.088608763
646.255053781 737.771013943 356.088670563
645.846991402 737.801963544 356.088725406
645.438163965 737.817381764 356.088782501
645.029105609 737.828112113 356.088840276
644.62208517 737.880214043 356.088892051
644.211937791 737.868836235 356.088953033
643.804176312 737.905894382 356.08900699
643.394029355 737.894525129 356.089067971
642.985410708 737.914181973 356.089124451
642.57737101 737.945592003 356.089179227
642.169330982 737.976995358 356.089234004
641.758653122 737.954848299 356.089296548
641.339823873 737.767220574 356.089383091
640.931020168 737.783120562 356.089440117
640.529305115 737.942926699 356.089476271
640.100103512 737.54473069 356.089593354
639.715374806 738.049375197 356.089579496
639.309069985 738.116004832 356.089629164
638.90112279 738.149292773 356.089683668
638.492550536 738.169891441 356.089740012
638.083538143 738.181554872 356.089797652
637.674919602 738.201213879 356.089854132
637.253914387 737.969412047 356.089947082
636.777756125 736.617952894 356.09020242
648.709972262 737.719746371 355.525822009
648.300288685 737.71778416 355.525881625
647.891530849 737.734615348 355.525938516
647.48305153 737.75710067 355.525994586
647.074849444 737.785214084 355.52604984
646.664586816 737.771496619 355.526111161
646.257311634 737.818427031 355.526163687
645.847280018 737.809399313 355.526224327
645.439750695 737.85117043 355.526277601
645.028098103 737.809235412 355.526343014
644.620776583 737.85522513 355.526395676
644.21181018 737.867822204 355.52645318
643.802913582 737.881836385 355.526510479
643.393947734 737.894444741 355.526567982
642.986185538 737.931488316 355.526621941
642.578007303 737.960085944 355.526677125
642.169040979 737.972684618 355.526734629
641.761719302 738.018671138 355.526787291
641.352984572 738.035971405 355.526844114
640.921187652 737.585088096 355.526968838
640.469204786 736.724411601 355.527152996
640.025554199 736.032887987 355.527312621
639.690957145 737.55525092 355.52715116
639.304775907 738.03040771 355.527141578
638.900879073 738.145921693 355.527184157
638.492515401 738.170754757 355.527239887
638.083757801 738.187590739 355.527296776
637.670833911 738.119847203 355.527365933
637.210818882 737.09611045 355.52757374
636.742552892 735.904871631 355.52780584
648.709334938 737.708384698 354.963323657
648.300323063 737.720058658 354.963381295
647.891727564 737.740185428 354.963437708
647.48287728 737.755139833 354.963494871
647.074999918 737.789845443 354.963549169
646.664227462 737.765777985 354.963611991
646.257902072 737.831990054 354.963661719
645.845971589 737.784413595 354.963727951
645.438117343 737.819588474 354.963782181
645.028688351 737.822794581 354.963841048
644.620393544 737.849025666 354.963896575
644.212539339 737.88420139 354.963950805
643.803109648 737.887393303 354.964009673
643.395047626 737.918350142 354.964064515
642.986451502 737.93846422 354.964120929
642.577647805 737.954364397 354.964177955
642.169677578 737.987184764 354.964232526
641.761290198 738.011536528 354.964288326
641.353435724 738.046706798 354.964342557
640.921106207 737.58501128 354.964468849
640.507210192 737.49753271 354.964540868
640.096763663 737.480081887 354.964602731
639.688029443 737.497392494 354.964659551
639.287420946 737.679662709 354.964692448
638.900867216 738.147257565 354.964683963
638.492225444 738.166444956 354.964740512
638.083398725 738.181877747 354.964797605
637.656188203 737.824102524 354.964908826
637.151066899 735.884667106 354.965249438
648.709716924 737.717715959 354.400822304
648.29952356 737.7054046 354.400883421
647.892456908 737.756568373 354.400935332
647.482193586 737.742836806 354.400996655
647.07433964 737.778017794 354.401050884
646.664956426 737.782153222 354.401109616
646.255527837 737.78536751 354.401168481
645.846145188 737.789514408 354.401227211
645.437803955 737.814803012 354.401282875
645.029371228 737.8382342 354.401338808
644.620774928 737.858344704 354.401395223
644.211971509 737.874250523 354.401452248
643.804116744 737.909414871 354.401506479
643.394363441 737.90603715 354.401566301
642.986833529 737.947796327 354.401619576
642.577728345 737.957576018 354.401677489
642.169827775 737.991810482 354.401731856
641.754751025 737.880361919 354.401807351
641.339856286 737.772608357 354.40188231
640.935545202 737.87971268 354.401926108
640.53604744 738.084531832 354.401955734
640.125878663 738.072719628 354.402016779
639.704294467 737.829163953 354.402111434
639.27865769 737.503337198 354.402218021
638.878234557 737.689370474 354.402250371
638.475173583 737.821853163 354.402290489
638.059236964 737.69294848 354.402368516
637.605011794 736.786751174 354.402559275
648.709265163 737.710121389 353.838323405
648.300183201 737.720372508 353.83838125
647.891194353 737.732513948 353.838438821
647.48239012 737.74840322 353.838495848
647.074443263 737.781698023 353.83855035
646.665662275 737.798059193 353.838607309
646.256325996 737.803147444 353.838665903
645.846851018 737.805420003 353.838724904
645.437398295 737.808144342 353.838783841
645.029822306 737.848968089 353.838837252
644.6206937 737.858272309 353.838895234
644.211519308 737.866647021 353.838953351
643.80368839 737.902295489 353.839007512
643.394212501 737.904549528 353.839066517
642.985918583 737.930798663 353.839122041
642.577067975 737.945746488 353.839179205
642.14532376 737.495933139 353.839303774
641.657370526 735.905025261 353.839593839
641.335629391 737.688375122 353.839394527
640.944561512 738.064328623 353.839399333
640.536174104 738.088679823 353.839455132
640.127625327 738.10975509 353.839511407
639.718404611 738.11718939 353.839569661
639.285658325 737.647033072 353.83969718
638.847942284 737.075986204 353.839839332
638.400926999 736.316156149 353.840008864
637.98561651 736.199962473 353.840085047
648.709276138 737.711920792 353.275823144
648.300263787 737.723585069 353.275880784
647.891691658 737.744186275 353.275937128
647.482355059 737.74926804 353.275995722
647.074500544 737.784437464 353.276049953
646.665372485 737.793752778 353.276107934
646.25605902 737.799304184 353.27616646
645.84628311 737.795467539 353.276226348
645.437478946 737.81135822 353.276283375
645.029323582 737.840420132 353.276338491
644.621585094 737.877945006 353.276392381
644.212016492 737.878316904 353.276451658
643.80231036 737.875896801 353.276511341
643.3941775 737.90541557 353.276566391
642.985373586 737.921311329 353.276623417
642.576847577 737.942848811 353.276679625
642.163972728 737.876100848 353.276748637
641.715458167 737.085834141 353.276922583
641.336358907 737.704761548 353.27689215
640.944688491 738.068483007 353.27689873
640.535675964 738.080143712 353.27695637
640.127242787 738.10356578 353.277012305
639.717489609 738.100190598 353.277072126
639.244042972 736.803779919 353.277319479
638.785158144 735.802987291 353.277523959
648.708870381 737.705260148 352.71332411
648.299950756 737.718806849 352.713381477
647.89110049 737.73376163 352.71343864
647.482389423 737.751542256 352.713495392
647.073446265 737.76461123 352.713552828
646.665036403 737.788506607 352.713608694
646.256139819 737.802521069 352.713665993
645.846502505 737.801498047 352.713725473
645.438486228 737.833383548 352.71378018
645.029010361 737.835638057 352.713839185
644.621481195 737.877412368 352.713892458
644.211124962 737.861794618 352.713954054
643.802877052 737.888977774 352.714009444
643.394188559 737.907216667 352.71406613
642.985755137 737.930633752 352.714122065
642.577090444 737.949355825 352.714178681
642.168842053 737.976529203 352.714234072
641.745267486 737.692567178 352.714334587
641.325371643 737.483286638 352.714424271
640.940325284 737.981482504 352.714411348
640.535641097 738.08101248 352.714456244
640.121235669 737.983192379 352.714529763
639.655195297 736.837135659 352.71475531
648.70825621 737.694368493 352.15082569
648.299128428 737.703689447 352.15088367
647.890509582 737.723342249 352.150940151
647.482076485 737.746765916 352.150996085
647.073828209 737.773941644 352.151051475
646.664561323 737.780438634 352.151109865
646.256174331 737.804798294 352.151165663
645.8463515 737.800009109 352.151225689
645.438057508 737.82625674 352.151281214
645.029137419 737.83979404 352.151338582
644.620079156 737.850526271 352.151396357
644.21152973 737.871588376 352.151452634
643.802887676 737.890770032 352.151509184
643.394477847 737.914666067 352.151565049
642.985743043 737.931964829 352.151621872
642.577286881 737.954920264 352.151677874
642.169061619 737.98256319 352.151733197
641.696282469 736.69970311 352.151978585
641.317723382 737.329596533 352.151946561
640.912852854 737.425343629 352.151992006
640.505738629 737.475541602 352.152044058
640.095059843 737.45337575 352.152106604
639.612742295 735.976877443 352.152380076
648.708267449 737.696173255 351.588325428
648.299278504 737.708312721 351.588382999
647.890636534 737.72749607 351.588439548
647.481832763 737.743394742 351.588496574
647.073214246 737.763054219 351.588553054
646.6555895 737.59987901 351.588636052
646.236203699 737.400952788 351.588724234
645.832610683 737.522634542 351.588765918
645.41817812 737.424263571 351.588839516
645.024958803 737.756540898 351.588850657
644.620460433 737.859843147 351.588895006
644.212027201 737.883264088 351.588950941
643.80227362 737.879880727 351.589010763
643.394211283 737.910831174 351.589065606
642.985847069 737.935653238 351.589121337
642.577367258 737.958128595 351.589177409
642.164350721 737.888504242 351.589246838
641.646400768 735.688635506 351.589625223
641.243593716 735.826273045 351.589664592
640.86308513 736.416589873 351.589638309
640.471860319 736.789357502 351.589643577
640.038741405 736.311636497 351.589772193
648.708139708 737.695156591 351.025825576
648.299173796 737.707763632 351.025883079
647.890532019 737.726950928 351.025939627
647.481820804 737.744728546 351.025996381
647.073410724 737.768619504 351.026052247
646.649766417 737.483241686 351.026152968
646.221586112 737.105778983 351.026267044
645.745305783 735.751841749 351.02652274
645.343656795 735.912989053 351.0265587
645.000476647 737.261107324 351.026422511
644.62030941 737.858353833 351.026395222
644.211783693 737.879897239 351.026451429
643.80323405 737.900954925 351.026507706
643.394384451 737.915923244 351.026564867
642.985696083 737.934164676 351.026621553
642.577077477 737.953822367 351.026678034
642.168389419 737.972070097 351.026734719
641.721994193 737.224827825 351.026902425
648.707988847 737.693670568 350.463325791
648.29886076 737.702985317 350.463383772
647.89063586 737.730635576 350.463439093
647.481692887 737.74370831 350.463496529
647.068517318 737.670855467 350.463566426
646.608034852 736.637629317 350.463775609
646.1540324 735.735953386 350.463965713
644.952561051 736.289953465 350.46406336
644.601590193 737.479913186 350.463950108
644.211655901 737.878879541 350.463951577
643.802527388 737.888185641 350.464009558
643.394140734 737.912552164 350.464065356
642.985290548 737.927508543 350.464122518
642.576741308 737.94857441 350.464178795
642.168053305 737.966823268 350.46423548
641.745574653 737.705109336 350.464332768
648.707652752 737.688424115 349.900826552
648.29607165 737.647940418 349.900891755
647.889166344 737.702379653 349.900943191
647.467979658 737.466893802 349.901036676
