VERSION 0.7
FIELDS x y z
SIZE 4 4 4
TYPE F F F
COUNT 1 1 1
WIDTH 1149
HEIGHT 1
VIEWPOINT 0.0 0.0 0.0 1.0 0.0 0.0 0.0
POINTS 1149
DATA ascii
657.779120585 621.624730497 372.936005375
658.128589417 621.660068938 372.935896084
658.477139078 621.605139037 372.935812456
658.826598111 621.639515224 372.935703439
659.175323864 621.601878636 372.935614895
659.52469972 621.628086319 372.935508201
659.873474289 621.595243816 372.935418293
660.222684 621.605134938 372.935316237
660.571869199 621.612618888 372.935214866
660.911757851 620.707124451 372.935373047
661.262434228 620.861051308 372.935230043
661.61887743 621.581315927 372.934926033
661.968057751 621.588320766 372.934824797
662.317106097 621.582364837 372.934727247
662.666408661 621.601374718 372.934622598
663.01527611 621.577653662 372.934530098
663.36447118 621.58610697 372.934428451
663.71320179 621.548947476 372.934339771
664.062479893 621.565555081 372.934235805
664.411376716 621.544718676 372.934142485
664.760689027 621.564685818 372.934037564
665.109605402 621.545769602 372.933943698
665.458839541 621.558059639 372.93384096
665.807765654 621.540099725 372.933746822
666.14869669 620.736973898 372.933875901
656.263239363 621.694744469 372.396416562
656.611862478 621.647028211 372.396330883
656.961155306 621.665081981 372.396226506
657.309959205 621.635119906 372.39613578
657.659320451 621.659892751 372.396029494
658.007752835 621.59344556 372.39594914
658.357549153 621.660945117 372.395830706
658.705957104 621.592098531 372.395751035
659.055430746 621.627909267 372.39564161
659.404171136 621.591710204 372.395552657
659.75367902 621.630883837 372.395442276
660.102551365 621.607643525 372.395349639
660.451638815 621.605527877 372.395250997
660.800472119 621.578453525 372.39515945
661.149730687 621.593142765 372.39505603
661.49865193 621.574704604 372.394962028
661.847861579 621.584589581 372.394859973
662.197022397 621.589679223 372.394759282
662.546065823 621.583240152 372.394661869
662.895270616 621.592648322 372.39455995
663.244050127 621.560291171 372.394469905
663.593313561 621.575458179 372.394366349
663.942210387 621.554622158 372.394273029
664.291356566 621.558273987 372.394172746
664.640297351 621.541754958 372.394078198
664.989595019 621.560284095 372.393973687
665.338511371 621.541365575 372.393879821
665.68779924 621.558932265 372.393775583
666.0341554 621.288587142 372.393753196
656.143536861 621.739494801 371.856437955
656.491710214 621.647609122 371.856364833
656.841047015 621.669981324 371.856259229
657.18965061 621.620348142 371.856174095
657.538620681 621.606705124 371.85607873
657.88823613 621.656442242 371.855965346
658.236609896 621.584238422 371.855886629
658.586513733 621.662297046 371.855765193
658.935058558 621.606892259 371.8556817
659.284595819 621.648950928 371.855570499
659.633199245 621.599301138 371.85548537
659.982658261 621.6336755 371.855376354
660.331149363 621.572994827 371.855294361
660.680799018 621.626091195 371.855180022
661.029475842 621.583649575 371.855092844
661.378690418 621.594018463 371.854990652
661.727724083 621.586620785 371.854893511
662.07673334 621.576826112 371.854797051
662.425952772 621.587671999 371.854694724
662.774947363 621.576437017 371.854598674
663.124108144 621.581522915 371.854497984
663.473102723 621.570286781 371.854401934
663.822170688 621.566257568 371.854303836
664.171096827 621.548300246 371.854209697
664.520291803 621.556744338 371.854108052
664.869340158 621.550789273 371.854010501
665.218520481 621.5577944 371.853909266
665.567549288 621.549919627 371.85381226
665.916656348 621.549729831 371.85371307
666.263134694 621.291384085 371.853687272
666.599117517 620.002313109 371.853954502
656.02334035 621.735730312 371.31647314
656.372818907 621.772023806 371.316363578
656.723719779 621.947997446 371.316214306
657.074132332 622.076015043 371.316078667
657.421655318 621.920259369 371.316023703
657.767814872 621.630606289 371.316006806
658.116672896 621.605959645 371.315914569
658.465916697 621.619198592 371.315811561
658.815238813 621.640128661 371.315706366
659.164023148 621.608245245 371.315616187
659.513491944 621.643580134 371.315506897
659.862080773 621.592496851 371.315422176
660.211632691 621.635994773 371.315310566
660.560255705 621.588268723 371.31522489
660.909499624 621.601519286 371.315121879
661.258425773 621.583562924 371.315027739
661.607659922 621.595854016 371.314925001
661.956507849 621.570215748 371.314833046
662.305952164 621.603146442 371.31472444
662.654927175 621.589988583 371.314628937
663.003887535 621.575391951 371.314533842
663.353048312 621.580477465 371.314433152
663.702003798 621.565402105 371.314338194
664.051140164 621.568090336 371.314238186
664.400071203 621.550614142 371.31414391
664.749109794 621.543700279 371.314046632
665.098275465 621.54926644 371.313945805
665.447402019 621.550991073 371.313846071
665.796450385 621.545037161 371.31374852
666.145596525 621.548685246 371.313648238
666.49366801 621.446795525 371.313577961
666.824778062 619.679188461 371.313981235
655.908838262 622.291193438 370.776349341
656.257613255 622.258392595 370.776259422
656.606270302 622.214008711 370.776172796
656.955602185 622.235897865 370.776067329
657.304714073 622.236182188 370.775968004
657.652599504 622.116020892 370.775902921
657.999790492 621.927660986 370.775857226
658.347552853 621.79541343 370.775795579
658.69880124 622.005515124 370.775636605
659.047746968 621.989481543 370.775541919
659.395181873 621.825075752 370.775489414
659.745956109 621.988612953 370.775343678
660.094721053 621.954825193 370.775254039
660.440601926 621.637803932 370.775244922
660.789313163 621.598741812 370.775156783
661.138503337 621.606714281 370.775055273
661.487292635 621.575318328 370.774964954
661.836683213 621.602971695 370.774857849
662.185540869 621.578288866 370.774765622
662.534794535 621.592496691 370.774662339
662.883691365 621.571660958 370.774569018
663.232832613 621.574828684 370.774468873
663.581768571 621.557835536 370.77437446
663.9310271 621.572520936 370.774271041
664.279953257 621.554565343 370.774176902
664.628991836 621.547650232 370.774079624
664.978133047 621.55081431 370.77397948
665.327215618 621.548219455 370.773880974
665.676322632 621.548025147 370.773781785
666.025283002 621.533429475 370.773686691
666.374487813 621.542839469 370.773584771
666.711961908 620.400220611 370.773810366
655.788930562 622.315792015 370.236376463
656.13729945 622.243109084 370.236297882
656.486523893 622.254447043 370.236195415
656.835347315 622.226402276 370.236104144
657.184522811 622.232933284 370.236003043
657.533395214 622.209698635 370.235910404
657.882629322 622.221985792 370.235807667
658.231824376 622.230437468 370.23570602
658.580584283 622.196155136 370.235616522
658.929911267 622.217563164 370.235511192
659.278896075 622.205367463 370.235415415
659.62810083 622.21477189 370.235313498
659.9771785 622.211695811 370.235215128
660.32500524 622.085770686 370.235151684
660.67267051 621.943988237 370.235092747
661.022134204 621.978822028 370.2349836
661.369242042 621.782296303 370.234940227
661.716379438 621.588673283 370.234896029
662.065403366 621.580319399 370.23479916
662.41440774 621.57004523 370.234702837
662.763656546 621.583775672 370.234599689
663.112421391 621.549978308 370.234510053
663.461743489 621.570906552 370.23440486
663.810747822 621.560628256 370.234308538
664.159859737 621.560915267 370.234209212
664.508732129 621.537679563 370.234116574
664.857985773 621.551885276 370.234013291
665.207127009 621.555051754 370.233913147
665.556141145 621.545736192 370.233816551
665.905301964 621.550825834 370.23371586
666.254164547 621.526626916 370.233623496
666.594283941 620.643792769 370.233775235
655.66865621 622.304383149 369.696413821
656.017357525 622.264346588 369.696325959
656.365907291 622.209427056 369.696242329
656.715566756 622.263486831 369.696127716
657.06409692 622.206642309 369.696044632
657.413619472 622.247256349 369.695933842
657.762516217 622.226412359 369.695840524
658.111603693 622.224299208 369.69574188
658.460583681 622.211630156 369.695646238
658.80961246 622.203752695 369.695549234
659.158714577 622.203077452 369.695450182
659.507855762 622.206238938 369.695350039
659.857075246 622.217089818 369.69524771
660.206064927 622.205372652 369.695151797
660.555333267 622.221021554 369.695048104
660.904435376 622.220345544 369.694949052
661.253469045 622.21294825 369.694851911
661.59853911 621.816300555 369.694865431
661.945158347 621.571791247 369.694835699
662.294348485 621.579760164 369.69473419
662.64327952 621.562283584 369.694639914
662.992386532 621.562089085 369.694540725
663.341483775 621.560935211 369.694441809
663.690727638 621.574180207 369.6943388
664.039668456 621.557664441 369.694244251
664.388667953 621.546911258 369.694148064
664.73784337 621.553434585 369.694046966
665.086857529 621.544121327 369.693950369
665.436042772 621.551609501 369.693848996
665.785047109 621.541331684 369.693752674
666.134232369 621.548821586 369.693651301
666.474136467 620.644844058 369.693809051
655.548347494 622.289599482 369.156452139
655.897234696 622.267818198 369.156359088
656.246346674 622.268111353 369.15625976
656.594896347 622.213182702 369.156176132
656.944614469 622.273002945 369.156059882
657.292914849 622.193592203 369.155983213
657.64258893 622.24908739 369.155868193
657.991265777 622.206647978 369.155781014
658.340783483 622.24678617 369.155670359
658.689430945 622.201460955 369.155584
659.038542853 622.201747199 369.155484675
659.387816057 622.217873773 369.155380846
659.7367764 622.203275508 369.155285752
660.086069158 622.221322366 369.155181378
660.43514193 622.217765257 369.155083145
660.784376046 622.230053086 369.154980407
661.133321747 622.214016816 369.154885722
661.482042877 622.175926357 369.154797307
661.829497975 622.013503636 369.154744239
662.177500412 621.904833044 369.154675889
662.523361736 621.585891883 369.154667318
662.872195231 621.55883634 369.154575765
663.221458693 621.574006131 369.154472209
663.570404398 621.557970245 369.154377523
663.919653185 621.571698959 369.154274376
664.268530458 621.548942558 369.154181602
664.617534803 621.538665509 369.15408528
664.966744464 621.548551735 369.153983225
665.315812352 621.544515035 369.153885129
665.664997588 621.552002536 369.153783756
666.0138944 621.531165076 369.153690436
666.363182301 621.548735031 369.153586197
666.697343217 620.080741536 369.153904293
655.428459364 622.316119976 368.616478715
655.776877163 622.248240444 368.616398769
656.125915802 622.241331285 368.616301489
656.475188973 622.257454594 368.616197661
656.824076025 622.235658624 368.616104613
657.173354251 622.252278325 368.616000645
657.522021185 622.208865427 368.615913742
657.871607336 622.255725381 368.615801176
658.220254751 622.210395559 368.615714819
658.569630683 622.236610633 368.615608123
658.918371115 622.200415697 368.615519169
659.267527008 622.205021525 368.615418615
659.616712227 622.212507395 368.615317243
659.965838767 622.214230684 368.615217509
660.31510222 622.229399612 368.615113952
660.664042992 622.212879334 368.615019405
661.013238068 622.221333218 368.614917758
661.361954008 622.182733031 368.614829487
661.711129463 622.189260007 368.614728388
662.059996959 622.16554356 368.614635886
662.40786279 622.043457371 368.61457135
662.754374194 621.788358079 368.614544629
663.10169232 621.612483863 368.614495385
663.450359745 621.569119249 368.614408469
663.799320087 621.554520792 368.614313375
664.148480913 621.559611106 368.614212684
664.4974022 621.541177265 368.614118681
664.846558075 621.545781365 368.614018128
665.195743298 621.553267618 368.613916755
665.544772093 621.545391694 368.61381975
665.894011114 621.558161321 368.613716876
666.242849236 621.531560128 368.613625195
666.584631042 620.8119851 368.61373052
655.30799922 622.286465144 368.076521261
655.657077019 622.283401737 368.076422888
656.005641358 622.229913299 368.07633885
656.355144331 622.268604654 368.076228606
656.704075408 622.251132203 368.07613433
657.052996625 622.23269145 368.076040328
657.402538768 622.275229422 368.075928991
657.750932067 622.204943965 368.075849728
658.100488814 622.248916103 368.075737983
658.44916564 622.206474674 368.075650805
658.798512266 622.229811722 368.075544927
659.147267291 622.195049897 368.075455565
659.496413408 622.198695774 368.075355285
659.845676845 622.213863069 368.075251729
660.194734926 622.208863251 368.075153906
660.544164611 622.240357187 368.075045708
660.892826779 622.196476218 368.074958939
661.242129346 622.215486386 368.074854291
661.590884427 622.180730127 368.074764928
661.940045236 622.18581881 368.074664237
662.288922492 622.163060777 368.074571463
662.638078372 622.167665452 368.07447091
662.987214734 622.170353203 368.074370902
663.332568165 621.801533885 368.07437651
663.679270608 621.565195773 368.074344456
664.028255379 621.552996423 368.07424868
664.377323334 621.548966347 368.074150581
664.726347226 621.540608911 368.074053713
665.075512885 621.546173824 368.073952887
665.424742118 621.557982158 368.073850286
665.773707371 621.543866077 368.073755055
666.122892611 621.551353963 368.073653682
666.470157845 621.370285446 368.073605915
655.18801326 622.303378072 367.536550568
655.536616819 622.253741434 367.536465435
655.885958557 622.276598411 367.536359693
656.234606055 622.231276748 367.536273333
656.583913492 622.250765164 367.536168549
656.933152433 622.263526919 367.536065677
657.281961266 622.234049332 367.535974813
657.63144969 622.271311897 367.535864976
657.979833178 622.200062843 367.535785987
658.329497503 622.254599809 367.535671239
658.678076485 622.202549567 367.535586792
659.027442633 622.227803731 367.535480369
659.376143928 622.187765346 367.535392507
659.725431801 622.205332421 367.535288269
660.074744082 622.225296588 367.535183349
660.423635995 622.203978 367.535090166
660.772919039 622.221070956 367.534986062
661.121708325 622.189673755 367.534895744
661.4709327 622.201004993 367.534793279
661.819853939 622.182566352 367.534699277
662.168916987 622.17805438 367.534601316
662.518004429 622.175937869 367.534502673
662.867013684 622.166143003 367.534406214
663.215852087 622.139569451 367.534314524
663.562373489 621.885452099 367.534287524
663.909750115 621.715322986 367.534236647
664.257117381 621.544274636 367.53418603
664.60624884 621.546480972 367.534086159
664.955414494 621.552045405 367.533985333
665.30451172 621.550889804 367.533886418
665.653638308 621.552617796 367.533786682
666.00254976 621.533218054 367.533692953
666.351700822 621.537349474 367.533592535
666.68105758 619.597558125 367.53404476
655.067841583 622.302052523 366.99658506
655.416596691 622.267298856 366.996495696
655.765400635 622.237341196 366.996404969
656.11481079 622.266917153 366.996297316
656.463619492 622.237426797 366.996206456
656.813098078 622.273723077 366.996096893
657.162029133 622.256248514 366.996002617
657.510828191 622.225810975 366.995912026
657.860365369 622.267861388 366.995800828
658.208612024 622.183174568 366.995725659
658.558403445 622.250193189 366.995607363
658.907080288 622.207753393 366.995520184
659.256153134 622.20420358 366.995421949
659.60526987 622.204964038 366.995322489
659.954445301 622.211488614 366.99522139
660.303713633 622.227136748 366.995117697
660.652634842 622.208695228 366.995023696
661.001732134 622.207546058 366.994924779
661.350594722 622.183347619 366.994832414
661.699828848 622.195636504 366.994729676
662.048725668 622.174799811 366.994636356
662.397852261 622.176528284 366.994536621
662.746910397 622.171533745 366.994438796
663.09594409 622.164138851 366.994341655
663.445095085 622.168263743 366.994241238
663.794026139 622.150789085 366.994146962
664.139438284 621.787735804 366.994150931
664.486042914 621.541791853 366.994121607
664.835301462 621.556479174 366.994018188
665.184384018 621.553882879 366.993919682
665.53338346 621.543124319 366.993823496
665.882651844 621.558777542 366.993719802
666.230654375 621.450116165 366.99365145
654.947713788 622.305036478 366.456618327
655.296258765 622.24964657 366.456534829
655.645556437 622.26817609 366.456430318
655.994228357 622.225252864 366.456343276
656.343936639 622.284106725 366.456227301
656.692593894 622.239743285 366.456140669
657.041989451 622.267885651 366.456033424
657.391238073 622.281598143 366.455930282
657.739856297 622.233401525 366.45584474
658.089002503 622.237056138 366.455744456
658.437728203 622.199414461 366.455655914
658.787167631 622.23186518 366.455547444
659.13578092 622.18318398 366.45546204
659.485078592 622.201713501 366.455357528
659.834190466 622.201996384 366.455258204
660.183478325 622.219562211 366.455153966
660.53264888 622.225607964 366.455053003
660.881570106 622.207168075 366.454959001
661.23064295 622.203618069 366.454860766
661.579574009 622.18614389 366.45476649
661.928808133 622.198432583 366.454663752
662.27766097 622.173276498 366.45457166
662.626724009 622.168763471 366.454473699
662.975772353 622.162807446 366.454376148
663.324859821 622.160693526 366.454277505
663.673878842 622.151857747 366.454180773
664.022492463 622.103209182 366.45409536
664.366257092 621.578359671 366.454145326
664.715144377 621.556586638 366.454052272
665.06416827 621.548229298 366.453955404
665.413333969 621.553798147 366.453854577
665.762318771 621.54160187 366.4537588
666.111572445 621.555810464 366.453655517
666.447282504 620.239952452 366.453930362
654.827532291 622.302746467 365.916653093
655.176336301 622.272795335 365.916562364
655.525057164 622.234678578 365.916473956
655.874569976 622.274336124 365.916363437
656.223212466 622.228522678 365.916277218
656.572915905 622.286900884 365.916161377
656.921519337 622.237251767 365.916076248
657.27099296 622.27306068 365.915966824
657.619801858 622.243589522 365.915875958
657.968703616 622.223237796 365.9157825
658.317810694 622.223049729 365.91568331
658.66675141 622.206523886 365.915588764
659.01610288 622.230336684 365.91548275
659.364838402 622.193659468 365.915393933
659.714072547 622.205950177 365.915291195
660.063365266 622.223993292 365.915186821
660.412364729 622.213236748 365.915090635
660.761613563 622.22697007 365.914987487
661.110378376 622.193169441 365.914897852
661.459592955 622.203538618 365.91479566
661.808582636 622.191821548 365.914699747
662.157547924 622.177708826 365.914604515
662.506566941 622.168872663 365.914507783
662.855629974 622.16435906 365.914409822
663.204727197 622.163203266 365.914310907
663.553726657 622.152446434 365.914214721
663.902814174 622.150337314 365.914116076
664.249243092 621.887137488 365.914091658
664.594845572 621.542776264 365.914090314
664.94425075 621.571863509 365.9139828
665.292991126 621.535663006 365.913893848
665.64236212 621.561393209 365.913787289
665.991234481 621.538154433 365.913694651
666.340292667 621.533164886 365.913596826
666.676223335 620.238972099 365.913865512
654.707199221 622.285571084 365.376692091
655.056037509 622.258986209 365.376600405
655.405217832 622.265991336 365.376499169
655.754168338 622.250426881 365.37640435
656.10356875 622.279046056 365.37629697
656.452279692 622.239955045 365.376208839
656.80198813 622.298824266 365.376092859
657.150528031 622.242935951 365.376009503
657.499957642 622.274422592 365.375901308
657.848487872 622.217584504 365.375818222
658.197590034 622.216913677 365.375719169
658.546755733 622.222482622 365.375618342
658.895676955 622.204042349 365.37552434
659.244769373 622.202414644 365.375425559
659.593842152 622.198858207 365.375327326
659.943183788 622.2217052 365.375221587
660.292344563 622.226790522 365.375120897
660.641251125 622.206910516 365.375027305
660.990451049 622.215840535 365.374925522
661.339230555 622.183482904 365.374835477
661.688410925 622.190492639 365.37473424
662.037253982 622.164376028 365.374642421
662.38641966 622.169942862 365.374541594
662.73554622 622.17166807 365.37444186
663.08451636 622.158031868 365.374346492
663.433701613 622.165521098 365.374245119
663.782598432 622.144684309 365.374151799
664.129848546 621.962130949 365.374104453
664.474825397 621.556329079 365.374120576
664.823873702 621.550369214 365.374023026
665.173044329 621.556422071 365.373922061
665.521965535 621.537980262 365.37382806
665.871165458 621.546910185 365.373726277
666.220028047 621.522711747 365.373633913
666.565915246 621.206311676 365.373624619
666.898618432 619.595160254 365.373983414
654.587423549 622.32313571 364.836715526
654.935968432 622.267736585 364.836632032
655.284938557 622.254098943 364.836536665
655.634104255 622.259667697 364.836435838
655.982952188 622.234030101 364.836343882
656.332552994 622.282329118 364.836230907
656.681361687 622.252837898 364.836140047
657.031025998 622.307373517 364.836025299
657.379248225 622.220287686 364.835950813
657.728633972 622.247466647 364.835843842
658.077545483 622.228072664 364.835750112
658.426495999 622.212509266 364.835655292
658.775759471 622.227680113 364.835551735
659.124358104 622.177559563 364.83546674
659.473797551 622.210012298 364.83535827
659.82305115 622.2242135 364.835254989
660.172192399 622.227381225 364.835154844
660.521318962 622.229106722 364.83505511
660.870015348 622.188586154 364.834967385
661.219215257 622.197514733 364.834865603
661.568087633 622.174277494 364.834772965
661.917277779 622.182247275 364.834671455
662.26618437 622.162370148 364.834577862
662.615369599 622.169856978 364.83447649
662.964452187 622.167263851 364.834377983
663.313495641 622.160827563 364.834280569
663.66260267 622.160634696 364.834181379
664.007770087 621.773547627 364.834192181
664.354560772 621.545875459 364.834157663
664.703848646 621.563442726 364.834053425
665.052828554 621.550765802 364.833957784
665.402155528 621.57217287 364.833852455
665.751008337 621.547014097 364.833760363
666.100105621 621.545864159 364.833661446
666.448997548 621.524547012 364.833568262
666.790764654 620.80352841 364.833673999
654.467026861 622.299712681 364.296756301
654.815953183 622.281773215 364.296662157
655.164732654 622.249412128 364.296572113
655.513805437 622.245856171 364.296473879
655.863279076 622.28166662 364.296364455
656.211990057 622.24257945 364.296276323
656.561703292 622.301919716 364.296160209
656.909993888 622.221548161 364.296083814
657.259404109 622.251130548 364.29597616
657.608076031 622.208207513 364.295889118
657.957510571 622.240178257 364.295780785
658.306646966 622.242869369 364.295680776
658.655147803 622.183144709 364.295598512
659.004626393 622.219441373 364.295488949
659.353469354 622.19331545 364.295397132
659.702855002 622.220484715 364.295290164
660.05195221 622.219327385 364.295191249
660.400888149 622.202332413 364.295096836
660.750156514 622.217983716 364.294993143
661.098989747 622.190902451 364.294901598
661.448287437 622.209433604 364.294797085
661.796974057 622.167954046 364.294709634
662.14604688 622.164401929 364.2946114
662.495246746 622.173326188 364.294509618
662.84427066 622.16497096 364.29441275
663.193431449 622.170057722 364.29431206
663.542352721 622.151622345 364.294218057
663.888644333 621.874938097 364.294197472
664.234447701 621.550305387 364.294190519
664.583598672 621.55442788 364.294090103
664.932881688 621.571518052 364.293986
665.281758907 621.548756467 364.293893227
665.630949086 621.556729416 364.293791716
665.979792144 621.530612996 364.293699897
666.328908958 621.531381039 364.293600434
666.678006178 621.530224861 364.293501519
667.009859597 619.835621016 364.293884039
654.346943257 622.30703638 363.756788334
654.695395231 622.242513122 363.756707433
655.04479558 622.271126056 363.756600055
655.393853612 622.266121437 363.756502233
655.742950877 622.264969676 363.756403317
656.092209511 622.279665348 363.756299895
656.440783559 622.227130427 363.756215586
656.790633711 622.299916814 363.756095649
657.138762956 622.203699552 363.756023759
657.488525069 622.26784005 363.755906281
657.837094393 622.214841185 363.755822104
658.186211244 622.215612876 363.75572264
658.535435565 622.226938835 363.755620176
658.884254163 622.198420333 363.75552904
659.23345897 622.207829847 363.755427121
659.58263435 622.214349431 363.755326023
659.931873349 622.227116851 363.75522315
660.280902142 622.219240734 363.755126145
660.629828313 622.20128658 363.755032005
660.979047769 622.212134675 363.754929677
661.327866378 622.183617229 363.75483854
661.677017476 622.187752201 363.75473812
662.025933802 622.168831089 363.754644256
662.375182557 622.182556635 363.754541109
662.724206492 622.174203422 363.75444424
663.073191278 622.16200561 363.754348464
663.422317879 622.163734755 363.754248728
663.771258671 622.147216398 363.75415418
664.119676833 622.079372576 363.754074224
664.466442456 621.849239188 363.754040405
664.813716382 621.669024362 363.753992395
665.161861 621.574316723 363.753920075
665.510601351 621.538113819 363.753831124
665.85970839 621.537922007 363.753731934
666.20872255 621.528608845 363.753635338
666.557810011 621.526494253 363.753536695
666.893778974 620.236062184 363.753804311
654.226468398 622.275936439 363.21683129
654.575741676 622.292070309 363.216727459
654.924350006 622.242902126 363.216642194
655.273755295 622.272000218 363.216534677
655.622803594 622.266039682 363.216437128
655.971719962 622.247122795 363.216343262
656.321442884 622.307414373 363.216226877
656.669714035 622.225133188 363.216151025
657.01926595 622.268630821 363.216039415
657.367840101 622.216106076 363.215955103
657.717000901 622.221193893 363.215854413
658.066054055 622.215710165 363.215756728
658.41520512 622.219841873 363.215656309
658.764043378 622.193254119 363.215564624
659.113233434 622.201214972 363.215463117
659.462848831 622.250947002 363.215349734
659.811701601 622.225784293 363.215257644
660.160891752 622.233754555 363.215156134
660.509627299 622.197079931 363.215067316
660.858758746 622.19928502 363.214967445
661.207846218 622.19717158 363.214868802
661.556567072 622.15905396 363.214780394
661.905815869 622.172783538 363.214677247
662.254986398 622.178826794 363.214576285
662.604044505 622.173829472 363.214478462
662.953112443 622.169797667 363.214380364
663.302102113 622.158079445 363.214284451
663.651174969 622.154530592 363.214186216
664.000247753 622.150974635 363.214087983
664.349374292 622.152697732 363.213988249
664.698471554 622.151545682 363.213889332
665.043707729 621.771211092 363.213898215
665.390649627 621.558389069 363.213859475
665.739443807 621.527472419 363.21376902
666.088599704 621.532078726 363.213668466
666.437716496 621.532844657 363.213569005
666.768734328 619.756181013 363.213974853
654.106717039 622.315888748 362.676854047
654.45521305 622.255690161 362.676771917
654.804574361 622.280469343 362.676665629
655.153226641 622.235617288 362.676579136
655.502710054 622.272387687 362.676469438
655.851885582 622.278921862 362.676368336
656.20050862 622.231198116 362.67628266
656.549997045 622.268460681 362.676172822
656.898502726 622.209211677 362.676090422
657.248333271 622.280072594 362.675971033
657.596687397 622.205940043 362.675892864
657.946449483 622.270077759 362.675775387
658.294657086 622.181555746 362.675701309
658.643998726 622.204403122 362.675595569
658.99343323 622.236370314 362.675487237
659.342334887 622.216008701 362.675393782
659.691744982 622.245578801 362.675286131
660.040426718 622.203619556 362.675198816
660.389714658 622.221193255 362.675094576
660.738645653 622.20371274 362.675000301
661.087674481 622.195840078 362.674903295
661.436571345 622.175007706 362.674809974
661.785692985 622.176249771 362.674710377
662.134843992 622.180375816 362.67460996
662.483907038 622.175863556 362.674511998
662.832882065 622.162707233 362.674416495
663.182067342 622.170198863 362.674315121
663.531037452 622.156559684 362.674219754
663.880134692 622.155405523 362.674120838
664.229261262 622.157131691 362.674021104
664.578246065 622.14493551 362.673925327
664.92547193 621.96000071 362.673878658
665.270277495 621.537377532 362.673899563
665.619399181 621.53862411 362.673799965
665.968496427 621.537470428 362.673701049
666.316729206 621.451420846 362.673626268
653.986369381 622.297280735 362.136893453
654.335495985 622.299010264 362.136793717
654.683987001 622.238321144 362.136711726
655.033666042 622.294303314 362.136596567
655.382254846 622.243217629 362.136511846
655.731704126 622.276635882 362.136403102
656.08070355 622.265875595 362.136306917
656.429448888 622.230162457 362.136217825
656.778898055 622.26356967 362.136109084
657.127447771 622.208645243 362.136025455
657.477102371 622.262227155 362.135910978
657.825412525 622.183776266 362.135834037
658.17499868 622.230636509 362.135721471
658.523958924 622.216028548 362.135626379
658.873188146 622.22783573 362.135523779
659.22240271 622.238203467 362.135421587
659.571299489 622.217362742 362.135328268
659.920416342 622.218134721 362.135228804
660.269220277 622.188176101 362.135138077
660.618469055 622.201903952 362.135034931
660.967453901 622.189711898 362.134939153
661.316345832 622.168395134 362.134845969
661.665584831 622.181162555 362.134743095
662.014701599 622.181926085 362.134643634
662.363789065 622.179812069 362.134544991
662.712857005 622.175780361 362.134446893
663.061792919 622.158782989 362.134352481
663.410855953 622.154269577 362.134254521
663.759933631 622.151194267 362.134156151
664.109094368 622.156275845 362.134055462
664.458172083 622.153204184 362.133957091
664.805290387 621.957706187 362.133913426
665.150183974 621.543727361 362.133931873
665.499217693 621.536334963 362.133834731
665.848319787 621.535657512 362.133735679
666.192511871 621.052786709 362.133773712
653.86619761 622.295945874 361.596927947
654.215206896 622.286154081 361.596831487
654.564372593 622.291722835 361.59673066
654.912966333 622.241121734 361.596645801
655.262400982 622.27310323 361.596537465
655.611331852 622.255610425 361.596443194
655.960624718 622.273667939 361.596338816
656.309462818 622.247064633 361.596247135
656.658648107 622.25455732 361.596145761
657.007799163 622.258688262 361.596045343
657.356241279 622.193196797 361.595964718
657.705890955 622.246295278 361.595850378
658.054469985 622.194249643 361.59576593
658.403884991 622.224302021 361.595658142
658.753202147 622.244744915 361.595553087
659.102094074 622.223427671 361.595459903
659.451455305 622.248199076 361.595353617
659.800181046 622.210561336 361.595265073
660.149297864 622.211329858 361.59516561
660.498233792 622.19433383 361.595071198
660.847238187 622.184061677 361.594974874
661.196218114 622.171386578 361.594879234
661.545398398 622.178387864 361.594777999
661.894593426 622.186837044 361.594676353
662.243656447 622.182322289 361.594578393
662.592680357 622.173966677 361.594481524
662.941660304 622.161293592 361.594385883
663.290689121 622.153419779 361.594288877
663.639820554 622.155623523 361.594189007
663.988956937 622.158313483 361.594088998
664.337990592 622.150914748 361.593991857
664.684116391 621.857946768 361.593975902
665.029968249 621.538075988 361.593967595
665.379001946 621.530681478 361.593870453
665.728143189 621.533848628 361.593770309
666.071450788 620.964115971 361.593833035
653.746187244 622.310462096 361.056957935
654.095049882 622.286268553 361.056865569
654.443956444 622.266388546 361.056771977
654.793322592 622.291642807 361.056665554
655.141896694 622.239113166 361.056581243
655.491443735 622.282132264 361.056469769
655.840159645 622.2435291 361.0563815
656.189496335 622.265890359 361.056275899
656.538447015 622.250343089 361.056181075
656.887182513 622.21366357 361.056092258
657.236602418 622.244197077 361.055984334
657.585215702 622.195515396 361.05589893
657.934552526 622.217889805 361.055793325
658.283830603 622.234494915 361.05568936
658.632810453 622.221812327 361.055593721
658.982210827 622.250427757 361.055486342
659.330951168 622.214223893 361.055397391
659.680195127 622.227478392 361.055294378
660.029013707 622.198958065 361.055203243
660.3780621 622.193006745 361.05510569
660.727017638 622.177936569 361.055010731
661.076100129 622.175333938 361.054912227
661.425329341 622.18714016 361.054809626
661.774465717 622.189829351 361.054709618
662.123396727 622.172350372 361.054615343
662.471550922 622.078583287 361.054542756
662.819088715 621.924281748 361.054487379
663.170546718 622.154969089 361.054322552
663.51970263 622.159576836 361.054221998
663.868726507 622.15121796 361.05412513
664.21785797 622.15342468 361.054025259
664.562605168 621.725069453 361.054047793
664.909908941 621.547785738 361.05399895
665.258918247 621.537995865 361.053902489
665.607937243 621.529157685 361.053805757
665.946439051 620.487466581 361.054002659
653.625883466 622.296163395 360.516996116
653.975151856 622.311817194 360.516892421
654.323926466 622.278978724 360.516802513
654.672867292 622.262463726 360.516707964
655.02228722 622.292999441 360.516600039
655.370880844 622.242387011 360.516515184
655.720378985 622.280603767 360.516405075
656.06915848 622.248245081 360.51631503
656.418109081 622.232690034 360.516220208
656.767250406 622.235865248 360.516120062
657.116108055 622.211181747 360.516027835
657.465420394 622.231151578 360.515922914
657.814527397 622.230956117 360.515823725
658.163595276 622.226918553 360.515725629
658.512844083 622.240649188 360.515622481
658.861784846 622.22412795 360.515527934
659.210955456 622.230179176 360.51542697
659.559915797 622.215580622 360.515331876
659.908969092 622.210110716 360.515234187
660.257826827 622.185435663 360.515141958
660.606796962 622.171798981 360.515046591
660.956084846 622.189367209 360.514942352
661.305133179 622.183410031 360.514844802
661.654279314 622.187057636 360.514744521
662.003332542 622.181581203 360.514646834
662.350597036 622.000440031 360.514599087
662.697890451 621.822139053 360.514550532
663.05055584 622.171399066 360.514351996
663.399516195 622.156801953 360.514256902
663.748711229 622.16525171 360.514155256
664.097446943 622.128593401 360.514066433
664.441402188 621.622463588 360.514111078
664.7897128 621.544057625 360.514034125
665.138770935 621.539063087 360.5139363
665.481338906 620.896694373 360.514019677
653.506180999 622.340917087 359.977017508
653.854721033 622.285041828 359.976934148
654.203730322 622.275250322 359.976837688
654.552998651 622.290898073 359.976733996
654.901675456 622.248454629 359.976646818
655.251310503 622.300116351 359.976532887
655.5997185 622.231274277 359.976453214
655.949055316 622.253647919 359.976347609
656.297956942 622.233283234 359.976254155
656.646966177 622.223486352 359.976157696
656.996298175 622.245386835 359.976052226
657.345219329 622.226939937 359.975958226
657.694688142 622.262276459 359.975848936
658.043360029 622.219349967 359.975761896
658.39263322 622.235475293 359.975658067
658.741642523 622.225685132 359.975561607
659.090676139 622.218282654 359.975464467
659.439832079 622.222893185 359.975363912
659.788665371 622.195817584 359.975272366
660.137703944 622.188901993 359.975175088
660.486713272 622.179114233 359.975078626
660.835927766 622.189475152 359.974976437
661.185132545 622.198881882 359.974874518
661.534102702 622.185247408 359.97477915
661.883199925 622.184091519 359.974680235
662.232170092 622.170458005 359.974584867
662.581296655 622.172183501 359.974485132
662.930330345 622.164788223 359.974387991
663.279442288 622.165078018 359.974288664
663.628510183 622.161041894 359.974190568
663.974684784 621.872866558 359.97417325
664.320487821 621.54820131 359.974166306
664.669482407 621.536965848 359.974070256
665.018701895 621.547817111 359.973967927
665.357868666 620.571429601 359.974146263
653.385232423 622.263295272 359.43707369
653.734754623 622.303874753 359.43696291
654.083661217 622.283997915 359.436869316
654.432562941 622.263642828 359.436775859
654.782002441 622.296100747 359.436667388
655.130640049 622.249807807 359.436581304
655.480196872 622.293787528 359.436469557
655.828883477 622.252306434 359.436382106
656.17791226 622.244429358 359.436285101
656.527209997 622.262965119 359.436180588
656.875994225 622.231071238 359.436090411
657.225394615 622.259688204 359.435983031
657.574032368 622.213409568 359.435896944
657.923408318 622.239626466 359.435790246
658.272544619 622.242308265 359.43569024
658.621358326 622.213309404 359.43559924
658.970758674 622.241922241 359.435491862
659.31953816 622.209562691 359.435401817
659.66863544 622.208412368 359.4353029
660.017532238 622.187573565 359.43520958
660.366619678 622.185456957 359.435110938
660.71590757 622.203025951 359.435006699
661.064936368 622.195150314 359.434909694
661.413974946 622.188235107 359.434812416
661.76301355 622.181322492 359.434715137
662.112017898 622.171045732 359.434618815
662.461105374 622.168932675 359.434520172
662.810207504 622.16825868 359.434421119
663.159197184 622.156541419 359.434325206
663.50832377 622.15826922 359.434225471
663.855011746 621.920510375 359.43419382
664.200443173 621.559350697 359.434197251
664.5493938 621.543798243 359.434102429
664.898451912 621.538801401 359.434004605
665.232827917 620.091931034 359.434316696
653.263535622 622.112193108 358.897150762
653.614597554 622.303983753 358.896996994
653.963553048 622.288909257 358.896902035
654.31274315 622.296874719 358.896800527
654.661669274 622.27891586 358.896706388
655.01096702 622.297452581 358.896601874
655.359619356 622.252605998 358.89651538
655.708985486 622.27785853 358.896408957
656.058077792 622.276219786 358.896310179
656.406779106 622.23618313 358.896222317
656.756130587 622.259996984 358.896116302
657.104866048 622.223313914 358.896027487
657.454110035 622.2365711 358.895924474
657.803031188 622.218124107 358.895830475
658.152255532 622.229452274 358.89572801
658.501426162 622.235505418 358.895627045
658.850234977 622.206026102 358.895536182
659.199434917 622.214957753 358.895434399
659.548351265 622.196038849 358.895340533
659.897384929 622.188641075 358.895243392
660.24657019 622.196131073 358.895142019
660.595657625 622.194013984 358.895043377
660.944740181 622.191417689 358.894944871
661.293852138 622.191708829 358.894845544
661.64277339 622.173271532 358.894751541
661.991987974 622.183641188 358.894649349
662.340948325 622.169043692 358.894554255
662.689996673 622.163087955 358.894456704
663.039103718 622.162896623 358.894357515
663.388166706 622.1583787 358.894259555
663.733886489 621.825537359 358.894254935
664.080261666 621.557059822 358.894232018
664.429261156 621.546305966 358.894135831
664.77352069 621.070059127 358.89417198
653.145631574 622.333562662 358.357121944
653.494562686 622.316093667 358.357027666
653.84340577 622.289979839 358.356935846
654.192542067 622.292661254 358.35683584
654.541937536 622.320794982 358.356728597
654.890531194 622.270185913 358.356643741
655.239936453 622.299281126 358.356536226
655.588686556 622.264035869 358.356447001
655.937720358 622.256651727 358.356349857
656.286876344 622.261266676 358.356249301
656.635631341 622.22650216 358.35615994
656.985153903 622.26711716 358.356049149
657.333698751 622.211714675 358.355965656
657.683103928 622.240801823 358.355858143
658.03207898 622.227647997 358.355762638
658.381039296 622.213046949 358.355667545
658.730165921 622.21477859 358.355567809
659.079136047 622.201141043 358.355472442
659.42825774 622.202388293 358.355372843
659.77737454 622.203154992 358.355273381
660.126330018 622.188078864 358.355178423
660.475476145 622.191725701 358.355078142
660.824592915 622.192489424 358.354978681
661.173548418 622.177415792 358.354883722
661.522728749 622.184421591 358.354782487
661.871723334 622.173186032 358.354686437
662.220825478 622.172513477 358.354587384
662.569981363 622.177118537 358.354486831
662.918980844 622.166363817 358.354390644
663.268136733 622.170969356 358.354290091
663.613333618 621.786776157 358.35430007
663.960055727 621.552369456 358.354267466
664.309216573 621.557461786 358.354166774
664.647542201 620.498468828 358.354368595
653.025557659 622.341837959 357.817153706
653.374122103 622.288359888 357.817069666
653.723463816 622.311214465 357.816963924
654.0724877 622.30285626 357.816867056
654.421369804 622.280574361 357.816774147
654.770672486 622.299595857 357.816669495
655.119412781 622.263387385 357.816580545
655.468676257 622.278558618 357.816476988
655.817626837 622.263001555 357.816382167
656.16652365 622.242164191 357.816288847
656.515928925 622.271260844 357.816181331
656.864605723 622.228816727 357.816094153
657.213815413 622.238705736 357.815992098
657.562902896 622.236593353 357.815893454
657.911887658 622.22439314 357.815797679
658.260994751 622.224206609 357.815698487
658.609906191 622.204805617 357.815604759
658.959018099 622.205091956 357.815505434
659.308159356 622.20826045 357.815405289
659.657212585 622.202784113 357.815307602
660.006368504 622.207392628 357.815207047
660.355460825 622.205755323 357.815108269
660.704509186 622.199800931 357.815010718
661.053464728 622.184731043 357.814915758
661.401995202 622.12791695 357.814832666
661.75167382 622.183857652 357.814717518
662.100741735 622.179823544 357.814619421
662.449799848 622.174826894 357.814521597
662.798950915 622.178958794 357.814421179
663.148023647 622.175397748 357.814322947
663.494814192 621.947711851 357.814288432
663.839967121 621.559201947 357.814299639
664.188927489 621.544606082 357.814204544
664.524128811 620.178787016 357.814493593
652.905200151 622.322262603 357.277193387
653.254160583 622.307673075 357.27709829
653.603116064 622.292597236 357.277003332
653.952179099 622.288083921 357.276905371
654.301559889 622.31477609 357.276798539
654.650261117 622.274730985 357.276710679
654.999676169 622.304787876 357.27660289
655.348362845 622.26331379 357.276515437
655.69733287 622.249666356 357.276420073
656.046562188 622.261482947 357.276317469
656.395444203 622.239192409 357.276224562
656.744693073 622.252929186 357.276121413
657.093462804 622.219611605 357.276031641
657.442696974 622.231904714 357.275928902
657.791686687 622.220190716 357.275832988
658.140739879 622.214710731 357.275735302
658.489954437 622.225077891 357.275633111
658.838919714 622.210964113 357.275537879
659.187914276 622.199726251 357.27544183
659.537104415 622.20769536 357.275340321
659.886123417 622.198857661 357.275243589
660.235254894 622.201065821 357.275143717
660.582641705 622.031936891 357.275092555
660.928209745 621.684193471 357.275092172
661.276842726 621.637446192 357.275006218
661.631565642 622.188768131 357.274750237
661.980560204 622.177530269 357.274654188
662.329720979 622.182615591 357.274553498
662.67872538 622.172344014 357.274457174
663.027744382 622.163506412 357.274360443
663.374769593 621.958866135 357.274319376
663.719756272 621.554029493 357.274335225
664.06473897 621.148801873 357.274351184
652.785194749 622.337266288 356.737223236
653.133788434 622.286659907 356.737138379
653.483056777 622.302309002 356.737034686
653.832119811 622.297795591 356.736936725
654.181021484 622.277435513 356.73684327
654.530363267 622.300296905 356.736737526
654.879118247 622.265530663 356.736648166
655.228440412 622.286465532 356.73654297
655.577449575 622.276661642 356.736446513
655.926277984 622.249106546 356.736355103
656.275561049 622.266201518 356.736250999
656.624218246 622.221832414 356.736164369
656.973594218 622.248051425 356.736057671
657.322417648 622.220007329 356.7359664
657.671563781 622.223654742 356.735866119
658.020778392 622.234027086 356.735763926
658.369787572 622.224224924 356.735667469
658.718757759 622.21059333 356.7355721
659.067859884 622.209918856 356.735473048
659.416878904 622.201082981 356.735376315
659.765995714 622.20185064 356.735276853
660.113529191 622.047125282 356.735221596
660.458246866 621.615870714 356.735244955
660.807187915 621.5993776 356.7351504
661.156270468 621.596781112 356.735051894
661.507786978 621.833214138 356.734885434
661.859812026 622.119588777 356.734704775
662.208356951 622.064193791 356.73462128
662.558573192 622.172932413 356.734491122
662.906927827 622.098849779 356.734412939
663.251264132 621.630142372 356.734446945
663.597166291 621.315211496 356.734437234
663.930675556 619.783221977 356.734773524
652.663420093 622.178518318 356.197302482
653.013768321 622.300218865 356.19716864
653.362762868 622.288979563 356.197072591
653.711845419 622.286382788 356.196974085
654.061099069 622.300588982 356.196870802
654.409907883 622.271109569 356.196779939
654.759230058 622.292045397 356.196674743
655.108112165 622.269763787 356.196581834
655.457097031 622.25757375 356.196486055
655.806296926 622.266500985 356.196384273
656.155144823 622.240859742 356.196292319
656.504339919 622.249315643 356.196190671
656.85338335 622.24287705 356.196093257
657.20236327 622.230201278 356.195997617
657.55158272 622.241048894 356.195895289
657.900557695 622.227887482 356.195799786
658.249669629 622.228176318 356.19570046
658.598634904 622.214062348 356.195605229
658.947693033 622.209067234 356.195507405
659.2967463 622.203594544 356.195409717
659.645042268 622.123750481 356.195333172
659.989505652 621.667523098 356.19536363
660.337958063 621.603042653 356.195282717
660.687065056 621.602846233 356.195183529
661.036186737 621.604092331 356.195083931
661.38436579 621.512766479 356.19501065
661.720867249 620.274628842 356.195263399
662.418641338 620.231035462 356.195077305
662.774020567 620.84681137 356.194803
663.123009577 620.835028339 356.194707106
663.461445703 619.786886934 356.194905841
652.543062855 622.158969453 355.657342155
652.8935281 622.292161761 355.657205045
653.242698686 622.298210586 355.657104082
653.591659097 622.283618945 355.657008986
653.940678068 622.27477827 355.656912255
654.289995291 622.295227788 355.656807198
654.638931183 622.278228207 355.656712786
654.988003994 622.274674938 355.656614553
655.337032882 622.266808133 355.656517545
655.685954091 622.248366612 355.656423544
656.035300683 622.271700301 355.656317666
656.384133868 622.244614235 355.656226122
656.733323984 622.25258104 355.656124614
657.082367537 622.246154449 355.656027197
657.431215416 622.220511477 355.655935243
657.780527769 622.240482747 355.655830321
658.129414803 622.218684952 355.655737274
658.47850228 622.216571992 355.65563863
658.827584918 622.213983761 355.655540122
659.17532358 622.079408908 355.655479137
659.52033934 621.677428116 355.655494173
659.868640222 621.598066619 355.655417491
660.217727648 621.595948667 355.655318849
660.566649172 621.577538052 355.655224839
660.913640028 621.36952394 355.655184732
661.250258137 620.142842055 355.655434225
652.420574075 621.930090106 355.117441339
652.773346695 622.28988087 355.117239809
653.122399854 622.28439762 355.117142124
653.47144332 622.277962484 355.117044709
653.820628612 622.285455555 355.116943335
654.169608477 622.272774407 355.116847696
654.518862188 622.286986647 355.116744412
654.867802969 622.270467235 355.116649864
655.216782882 622.257790791 355.116554224
655.566012152 622.269602773 355.116451622
655.914977352 622.255481411 355.116356392
656.26407463 622.254330897 355.116257475
656.613035196 622.239754514 355.116162375
656.957923631 621.825269608 355.116180966
657.309182061 622.036357656 355.116021711
657.659672153 622.171990145 355.115883908
658.00186992 621.493265035 355.115977621
658.341262839 620.539086625 355.116149643
658.693336254 620.830211195 355.115967634
659.050523314 621.623527259 355.115642856
659.399513036 621.611814126 355.115546942
659.748473358 621.597213749 355.115451849
660.09764883 621.603742453 355.115350748
660.442029209 621.139363364 355.115383524
660.78316087 620.355940128 355.115507002
652.298325156 621.724766505 354.577533826
652.648619612 621.84118627 354.577401485
653.000874533 622.150135867 354.577214409
653.351256979 622.275196818 354.577079611
653.700305318 622.269240217 354.57698206
654.04949545 622.277208654 354.576880551
654.398524226 622.269330809 354.576783546
654.747655663 622.271535033 354.576683676
655.096748046 622.269903776 354.576584895
655.445659505 622.250504801 354.576491166
655.794854545 622.258955133 354.57638952
656.143834459 622.246278784 354.57629388
656.492877926 622.239843745 354.576196465
656.836242063 621.67566344 354.576257613
657.184992438 621.640444959 354.576168382
657.529877873 621.225665552 354.576187056
658.563722478 619.901613198 354.576265743
658.928206664 621.411552153 354.575737234
659.279307043 621.607118479 354.575582392
