VERSION 0.7
FIELDS x y z
SIZE 4 4 4
TYPE F F F
COUNT 1 1 1
WIDTH 442
HEIGHT 1
VIEWPOINT 0.0 0.0 0.0 1.0 0.0 0.0 0.0
POINTS 442
DATA ascii
644.483938099 737.857599137 374.094709821
644.122047819 738.825884597 374.09462872
644.899442798 737.979312031 373.532132838
644.55436326 739.288870954 373.53200224
644.161924133 739.636986855 373.532011084
644.945302898 738.911890632 372.969497583
644.567960575 739.56648548 372.969461977
644.163556145 739.671694781 372.96950605
645.71628843 737.935200437 372.407020572
645.321860182 738.242935375 372.407035272
644.972610826 739.467843152 372.406916952
644.580751171 739.827722883 372.406924089
644.175652066 739.918829657 372.406970207
646.554630922 738.325918177 371.844345242
646.194288123 739.325618919 371.844259585
645.792634982 739.486681918 371.844295557
645.383668908 739.499285668 371.84435306
644.992924725 739.881810493 371.844356913
644.600003112 740.220131499 371.844367177
644.191893516 740.250122543 371.844422159
646.956220177 738.165134836 371.28180923
646.610045357 739.452458513 371.281681857
646.200940645 739.462247793 371.281739769
645.793200545 739.499739958 371.281793663
645.403152546 739.896397948 371.281795466
645.00585551 740.145893848 371.281818613
644.59864804 740.194198881 371.281870938
644.193224642 740.278722205 371.281918011
646.99128707 738.878601447 370.719205754
646.610427037 739.461783568 370.719180505
646.200326515 739.451356983 370.719241348
645.809305122 739.828254187 370.719246018
645.414599969 740.130367704 370.719261533
645.007370518 740.178226495 370.719313923
644.598682473 740.196474508 370.719370608
644.191939115 740.254201428 370.719421567
647.360780034 738.06623401 370.156764242
647.019381041 739.450511366 370.156622808
646.609535081 739.445252633 370.156682902
646.201148066 739.469611824 370.156738701
645.816123558 739.968251289 370.156725713
645.414518501 740.130290419 370.156761544
645.006617482 740.164515764 370.156815912
644.598647116 740.197333311 370.156870484
644.192807235 740.273401664 370.156918783
647.354010881 737.930390603 369.594283944
647.018373276 739.431629399 369.594125547
646.609291633 739.441887006 369.59418339
646.208011174 739.610515782 369.594218265
645.823078703 740.111023675 369.594205007
645.415201105 740.145724491 369.594259306
645.005841344 740.150336049 369.594317968
644.599214137 740.210420958 369.594368586
644.192493714 740.268613478 369.594419477
646.962656999 738.302114571 369.031789363
646.610181411 739.461526901 369.031680542
646.226917383 739.995905717 369.031662371
645.82424776 740.136333208 369.031701336
645.414146988 740.125901547 369.031762181
645.0071031 740.177527442 369.031814025
644.597859009 740.184487211 369.031872347
644.192875561 740.277941919 369.031918124
646.598900665 739.234094031 368.469213527
646.232321753 740.107195985 368.46914623
645.823540858 740.123559036 368.469203189
645.414690866 740.138519364 368.469260351
645.005122769 740.138901508 368.469319627
644.599120835 740.211680015 368.469368403
644.1896447 740.213929073 368.469427408
646.617762035 739.618573709 367.906657765
646.231383325 740.089721629 367.906648765
645.824200619 740.138529388 367.906701018
645.413775701 740.121517282 367.906762816
645.006014056 740.158572044 367.906816774
644.597603495 740.182453226 367.906872642
644.190304512 740.228900459 367.906925237
648.206005353 738.602985825 367.344067732
647.8218863 739.120006844 367.344052079
647.388953298 738.646060037 367.344180148
646.952169871 738.09394606 367.344319554
646.635316888 739.976529878 367.34410585
646.23308492 740.125842149 367.344143526
645.822752585 740.110709552 367.344205052
645.414805746 740.144004731 367.344259555
645.005098642 740.141564886 367.34431924
644.598239724 740.196945851 367.34437054
644.191172156 740.248091011 367.344422454
648.596686285 738.220753524 366.781563837
648.244562744 739.387312744 366.781453979
647.835712484 739.402267619 366.781511142
647.42649187 739.409703987 366.781569395
647.041676749 739.912594208 366.781555791
646.64092754 740.092007844 366.781589102
646.23147509 740.094737731 366.781648037
645.823759639 740.132730274 366.781701859
645.413589413 740.120888651 366.781762908
645.005156205 740.144310061 366.781818842
644.599015132 740.214263944 366.781868028
644.19106734 740.247539758 366.781922534
648.60764999 738.444903367 366.219031328
648.244133886 739.380183115 366.218955013
647.836071123 739.411124913 366.219009857
647.426178927 739.404927553 366.219070088
647.048377548 740.050203152 366.219035833
646.640058519 740.075942509 366.219091432
646.232088436 740.10876579 366.219146003
645.823076033 740.120429033 366.219203643
645.414666009 740.14432112 366.219259509
645.004959052 740.141884282 366.219319194
644.596756938 740.169997133 366.219374448
644.192352383 740.275203897 366.219418521
648.596798993 738.2261948 365.656563048
648.244677676 739.392799146 365.656453184
647.834878077 739.388481577 365.656513141
647.434338958 739.572160247 365.656545833
647.048688387 740.058090051 365.656534689
646.640857131 740.093731655 365.656588852
646.231728924 740.103043961 365.656646833
645.823550208 740.131631812 365.656702018
645.414514953 740.142831147 365.656759725
645.004321695 740.130521951 365.656820842
644.597555573 740.187786749 365.656871868
644.19023304 740.23375588 365.656924533
648.604037326 738.374716166 365.094041507
648.244063449 739.381906362 365.093954763
647.836139712 739.415670526 365.094009198
647.452735579 739.947205077 365.09399144
647.04856066 740.057073669 365.094034837
646.640173349 740.081426843 365.094090636
646.23146217 740.099205213 365.094147389
645.823700275 740.136254899 365.094201347
645.414247982 740.13898798 365.094260283
645.006301223 740.172284759 365.094314785
644.597126446 740.180651669 365.094372903
644.191286274 740.256714099 365.094421203
648.579063961 737.869310593 364.531614808
648.244630484 739.394994291 364.531452865
647.852288843 739.74508926 364.531461422
647.456981881 740.034985499 364.531478709
647.049196981 740.071568174 364.531532735
646.640439206 740.088400585 364.531589625
646.231982622 740.111347464 364.531645628
645.822298962 740.10938356 364.531705245
645.415347897 740.162893852 364.531756815
645.0042048 740.13130206 364.531820729
644.598967304 740.219599349 364.531867254
644.18976912 740.227491071 364.531925441
648.575486441 737.798260264 363.969125112
648.247396577 739.452725112 363.968944492
647.865426519 740.013372705 363.968922512
647.456993144 740.036790731 363.968978447
647.048536694 740.059740336 363.96903445
646.640937047 740.100083817 363.96908793
646.231206517 740.097168407 363.969147685
645.823885122 740.143160662 363.969200346
645.413043139 740.117681739 363.969263373
645.0063464 740.176355089 363.969314195
644.596616147 740.17344532 363.969373948
644.19093821 740.252801262 363.969421771
648.631260782 738.932107018 363.406460667
648.252916059 739.566352233 363.406428013
647.865785154 740.022229905 363.406421227
647.456749659 740.033424351 363.406478935
647.050029976 740.091631913 363.406529825
646.639651155 740.075555613 363.406591488
646.233000967 740.135173982 363.406642173
645.822066512 740.107817806 363.406705472
645.41388812 740.136412239 363.406760656
645.004921819 740.149011382 363.40681816
644.598178757 740.206744319 363.406869119
644.191088096 740.257420682 363.406921101
648.638746838 739.085657398 362.843938398
648.247763928 739.463335863 362.843942953
647.864661621 740.000997752 362.843924306
647.457501752 740.050269137 362.843976492
647.048257606 740.057227778 362.844034814
646.641190871 740.108389859 362.844086726
646.230441535 740.084791762 362.84414948
645.82427776 740.154284746 362.844198733
645.412880225 740.11752764 362.844263395
645.005882619 740.170093101 362.844315103
644.597402564 740.192563475 362.844371175
644.190566697 740.24841239 362.844422407
648.596380225 738.227152987 362.281562909
648.248770367 739.48534408 362.281439762
647.865483339 740.019255977 362.281421658
647.456262276 740.026683226 362.281479913
647.050260203 740.099458913 362.281528689
646.639835174 740.082444551 362.281590489
646.232861105 740.135487832 362.281642127
645.82241302 740.118005425 362.281703994
645.414373706 740.149423259 362.281758769
645.00480523 740.149797694 362.281818046
644.597367248 740.193423124 362.281871051
644.19080961 740.254920345 362.281921463
648.620404166 738.716437571 361.718991947
648.264437457 739.804976933 361.718893404
647.864753353 740.006013195 361.718923579
647.457454681 740.052466726 361.718976173
647.047863241 740.052374999 361.719035518
646.641004565 740.107760853 361.719086817
646.230926898 740.097798269 361.719147593
645.823419825 740.14002107 361.719200801
645.4132499 740.128185559 361.719261849
645.004932417 740.153956309 361.719317443
644.598165966 740.211214432 361.71936847
644.189685887 740.233684338 361.719424543
649.014701829 738.407628227 361.156477402
648.656046477 739.441585695 361.156386776
648.272481114 739.969847125 361.156369493
647.864996183 740.012519457 361.156422635
647.455867934 740.021830917 361.156480617
647.049842792 740.094138276 361.156529461
646.640043063 740.089818076 361.156589419
646.2321889 740.124994645 361.156643649
645.823222677 740.137595386 361.156701153
645.413840273 740.141747266 361.156759882
645.005938805 740.175963493 361.156814251
644.597157988 740.192328142 361.15687121
644.191341005 740.268861342 361.156919441
649.385105274 737.613744394 360.59403321
649.059884939 739.326463315 360.593844141
648.666152912 739.648332175 360.593856791
648.27381117 739.998425078 360.593865348
647.864381975 740.00162705 360.593924215
647.456435025 740.034919973 360.593978718
647.048695866 740.072431217 360.594032609
646.641119288 740.113243024 360.594086022
646.231551098 740.113623289 360.594145298
645.822839962 740.131402504 360.594202051
645.414036284 740.147303056 360.594259077
645.004329054 740.144860673 360.594318762
644.59862827 740.223752801 360.594366652
644.189870045 740.240576094 360.594423544
649.056194471 739.253120027 360.031354779
648.665098379 739.628500769 360.031359668
648.273405399 739.991764151 360.031366314
647.864833178 740.012363477 360.031422658
647.455890172 740.025435553 360.031480094
647.048452589 740.069069068 360.031533097
646.640759753 740.107520724 360.031586852
646.231539148 740.114957281 360.031645105
645.823708101 740.150603116 360.031699266
645.413607189 740.140168634 360.031760111
645.005845636 740.177225277 360.031814068
644.596601361 740.184181286 360.031872391
644.192266629 740.290805531 360.031916259
649.032269382 738.76899541 359.468924992
648.653556241 739.395761404 359.468893422
648.269783222 739.919807243 359.46887675
647.864635812 740.009933374 359.468923011
647.455924652 740.027712119 359.468979764
647.048463337 740.070863866 359.469032837
646.640307904 740.099924367 359.469087953
646.231342051 740.112532629 359.469145456
645.822005679 740.117618999 359.46920405
645.415841649 740.187106814 359.469253304
645.00418934 740.145177531 359.469318716
644.598952065 740.233479333 359.469365241
644.18898949 740.225853212 359.469425679
648.996958242 738.05372354 358.90652873
648.651786307 739.361406714 358.906398405
648.247101767 739.460929543 358.906443302
647.86490166 740.016906928 358.906421999
647.45577362 740.026222617 358.90647998
647.047896031 740.060923622 358.906534278
646.640203639 740.099384302 358.906588032
646.230704852 740.101173493 358.906647104
645.823985424 740.159386226 358.906697993
645.413143149 740.133901381 358.90676102
645.006516308 740.193993717 358.906811636
644.596739412 740.190137047 358.906871527
644.190459781 740.257278061 358.906921121
648.993636012 737.98785582 358.344038283
648.650384582 739.334527008 358.343902303
648.246881611 739.458036756 358.343943722
647.863501505 739.990059085 358.343925893
647.455854234 740.029435743 358.343979514
647.048717633 740.079179496 358.344031631
646.639126217 740.079088238 358.344090975
646.232360188 740.136354917 358.344142001
645.821263693 740.105709177 358.344205778
645.415331211 740.179897644 358.344254349
645.004512487 740.154890902 358.344317308
644.597862554 740.214514441 358.344367992
644.189312906 740.235572035 358.344424269
648.993464749 737.985955627 357.781538559
648.650789568 739.344325184 357.781400882
648.265812407 739.843925841 357.781387755
647.864669276 740.015342491 357.781422226
647.456351695 740.041111266 357.78147782
647.04733908 740.052770185 357.781535461
646.640619304 740.110975866 357.781586351
646.23074977 740.10523856 357.781646514
645.822849742 740.139484024 357.781700879
645.413535953 740.145028849 357.781759406
645.006793081 740.20276564 357.781810364
644.597224901 740.203146093 357.781869641
644.189138846 740.233615051 357.781924553
648.97942368 737.702485666 357.219079671
648.639992489 739.126711188 357.218932443
648.268808684 739.906329598 357.218878705
647.864518257 740.01385327 357.218922442
647.455922661 740.033978065 357.218978855
647.047952596 740.066801722 357.219033426
646.639078896 740.081280751 357.219090657
646.232706673 740.146542067 357.219140524
645.821864629 740.121061923 357.219203551
645.414705173 740.170341674 357.219255735
645.005414772 740.176361311 357.219314194
644.597444518 740.209181113 357.219368765
644.189659613 740.245763696 357.219422791
648.570677278 737.721125565 356.656636299
648.2092224 738.698250076 356.656553916
647.863626495 739.997326283 356.656424839
647.456026635 740.03766544 356.65647832
647.047824753 740.065782991 356.656533574
646.641058654 740.12304826 356.6565846
646.230332346 740.099917643 356.656647286
645.824006799 740.166126515 356.656697015
645.41323418 740.142055767 356.656759838
645.006236472 740.194619159 356.656811546
644.597849337 740.218975906 356.656867345
644.188836851 740.230637457 356.656924985
647.836415038 739.44648538 356.094004729
647.454949389 740.017372947 356.093981263
647.049132698 740.093912071 356.094029494
646.639309419 740.089113768 356.094089521
646.232636143 740.148263433 356.094140274
645.821701545 740.120904344 356.094203574
645.415514742 740.189929849 356.094252894
645.00539077 740.179027228 356.094313807
644.597374354 740.210909908 356.094368515
644.190422905 740.264412398 356.094420087
648.1735642 737.977509176 355.531658447
647.847771558 739.678609733 355.531471063
647.455979393 740.039859551 355.531478002
647.047314088 740.058569215 355.53153462
646.640432106 740.113481948 355.531585987
646.23023864 740.101168522 355.531647105
645.823519434 740.159385766 355.531697993
645.412955374 740.139548943 355.531760201
645.006606124 740.205276611 355.53181
644.598218914 740.229631852 355.531865799
644.189900894 740.255391697 355.531921395
648.573998281 737.79327474 354.969125835
648.245190859 739.4331725 354.968947328
647.863266245 739.994742645 354.968925214
647.454716819 740.01580475 354.968981491
647.047997132 740.074012218 354.96903238
646.638961317 740.085200178 354.969090089
646.231593284 740.130245628 354.969142887
645.821237861 740.114644329 354.969204482
645.414541229 740.173319841 354.969255303
645.004880416 740.171819751 354.969314852
644.598091192 740.228615565 354.969365947
644.190051072 740.260017039 354.969420724
648.584449102 738.007012565 354.406594836
648.245084072 739.432581216 354.406447414
647.861842867 739.967423373 354.406429176
647.45549251 740.033128579 354.406478978
647.046340919 740.041966165 354.406537028
646.640338984 740.114744671 354.406585804
646.229890747 740.097259162 354.406647672
645.822059838 740.132907818 354.406701833
645.412885122 740.14127595 354.406759951
645.005308429 740.182085406 354.406813364
644.597685412 740.221954451 354.406866913
644.190316976 740.266991721 354.406919712
648.566913375 737.652597861 353.844146238
648.221159524 738.948467591 353.844017626
647.841917374 739.564494211 353.843987614
647.454646739 740.017535236 353.84398124
647.047047152 740.057879939 353.84403472
646.637825959 740.065304556 353.844092974
646.231245294 740.126334295 353.844143455
645.821329515 740.119658175 353.844203755
645.413590962 740.157181733 353.844257644
645.005528356 740.188126726 353.844312487
644.596376908 740.196967227 353.844370537
644.19081466 740.278671758 353.844418018
648.168630517 737.883657265 353.281672058
647.833363483 739.392418986 353.28151257
647.436622071 739.653194575 353.281534081
647.046687533 740.052155946 353.28153555
646.638670881 740.084033833 353.281590258
646.229519581 740.092877341 353.281648307
645.82222077 740.139328052 353.281700902
645.412698996 740.140650609 353.281760041
645.004358352 740.165951152 353.281815704
644.597661747 740.224627228 353.281866525
644.188880467 740.240982477 353.281923485
647.805245537 738.823175547 352.719095129
647.424964309 739.418107938 352.719068176
647.038272131 739.882892171 352.719060099
646.637917752 740.070321221 352.719092247
646.229970863 740.103615367 352.71914675
645.820796133 740.111983217 352.719204868
645.413474576 740.157972182 352.719257529
645.004762985 740.175742185 352.719314284
644.596167459 740.19586839 352.719370696
644.189679237 740.258774819 352.719420904
647.759895234 737.904099482 352.156728425
647.424651144 739.413326992 352.156568869
647.038307542 739.885187637 352.156559766
646.638114346 740.075888856 352.156591439
646.229217697 740.089902003 352.156648739
645.821710605 740.132124429 352.156701946
645.412605425 740.141904214 352.15675986
645.004913103 740.180366305 352.156813613
644.596525991 740.204723521 352.156869412
644.18911118 740.248819346 352.156922348
647.372453376 738.355241127 351.594222326
647.013248803 739.378048905 351.594133317
646.638032748 740.075808939 351.594091451
646.229738288 740.102047075 351.594146977
645.820818598 740.115592459 351.594204344
645.412663169 740.144653055 351.594259461
645.004113785 740.165716007 351.594315738
644.595958152 740.194772467 351.594370855
644.189817251 740.264729829 351.594420041
646.586371177 739.028608349 351.031743329
646.229402049 740.096797708 351.031647738
645.821107723 740.12303857 351.031703264
645.412488817 740.14269015 351.031759746
645.003893485 740.162820304 351.031816158
644.596201135 740.201281831 351.031869911
644.187721024 740.223751078 351.031925984
646.168200726 738.855931431 350.469327705
645.808760945 739.873964261 350.469239388
645.41020929 740.097990261 350.469266229
645.003997232 740.166503071 350.469315624
644.595679518 740.192269121 350.469371218
644.188565899 740.242479415 350.469423268
645.713235383 737.936284508 349.907020415
645.353863556 738.955696887 349.906931898
644.995513577 739.995853687 349.906840373
644.594626614 740.172470801 349.90687409
644.187859205 740.229709472 349.90692512
644.888927355 737.833632427 349.344653966
644.494635143 738.144129008 349.344668265
644.159565428 739.656896505 349.344508196