VERSION 0.7
FIELDS x y z
SIZE 4 4 4
TYPE F F F
COUNT 1 1 1
WIDTH 774
HEIGHT 1
VIEWPOINT 0.0 0.0 0.0 1.0 0.0 0.0 0.0
POINTS 774
DATA ascii
639.093477288 744.82269594 377.050571341
639.509460097 745.512987422 376.487758794
639.112465224 746.702974006 376.487536791
638.702663046 746.635204159 376.487672359
638.286703111 745.962704598 376.487979848
637.876612926 745.86665069 376.488123457
639.916011624 745.277068733 375.925209562
639.52143255 746.704301741 375.924920112
639.112065711 746.679284893 375.925043526
638.703590286 746.741810327 375.925142052
638.294295196 746.723839701 375.925263462
637.885647266 746.769424178 375.925366805
640.321001873 744.887822978 375.362703921
639.927813283 746.451609994 375.362375649
639.521052159 746.68249046 375.362426313
639.112274815 746.715365667 375.362533268
638.703272191 746.726117034 375.362646513
638.294437276 746.753338324 375.362755076
637.885583237 746.778681686 375.362864173
640.328048549 745.595395573 374.800002763
639.930201579 746.701700938 374.79980455
639.520911409 746.684213488 374.799925823
639.112311357 746.734499839 374.800027828
638.703064327 746.721248969 374.800147897
638.294224624 746.748000165 374.800256594
637.885188471 746.755458714 374.800370775
640.732899984 745.192517358 374.237500997
640.337286493 746.518164185 374.237240426
639.930012841 746.698711268 374.2373054
639.521115747 746.719826239 374.237415698
639.111906992 746.710334233 374.237534699
638.703158424 746.746035365 374.237640851
638.293781984 746.720075695 374.237764532
637.885445537 746.796249645 374.237859178
640.747092166 746.601822794 373.674600341
640.338855562 746.687801991 373.674692199
639.929963192 746.709380938 373.674802366
639.520792901 746.703666242 373.674920293
639.111699225 746.705475767 373.67503608
638.702893075 746.735521944 373.675143839
638.293823441 746.739692478 373.675258955
637.884825526 746.750906314 373.675372069
641.140158683 745.041592899 373.112427602
640.74778929 746.685830133 373.112076458
640.339059889 746.723413614 373.112182075
639.929717023 746.700751091 373.11230482
639.520690475 746.709152933 373.112418733
639.111294909 746.681314867 373.112542949
638.702900948 746.751840639 373.1126392
638.293342334 746.707990321 373.112767968
637.885034741 746.786998006 373.112861808
641.95567626 744.791331124 372.549766146
641.558683008 745.981476913 372.549544098
641.155008407 746.515472932 372.549508588
640.747936087 746.715791978 372.549567941
640.338444665 746.678540377 372.549694832
639.929902157 746.734477917 372.549795231
639.520209456 746.677459436 372.549927743
639.111542393 746.721164858 372.550031619
638.702146739 746.693318228 372.550155838
638.293493963 746.738426778 372.550259315
637.883418261 746.643795194 372.55040252
641.965925103 745.813376272 371.986975586
641.565512998 746.667769596 371.98684899
641.156788378 746.705822605 371.986954473
640.747579677 746.696335869 371.987073472
640.338519619 746.701446777 371.98718832
639.929176731 746.678782089 371.987311065
639.520490496 746.720604785 371.987415477
639.110879251 746.6715857 371.987545714
638.702586015 746.752003289 371.987639154
638.293190226 746.724143389 371.987763376
637.884628803 746.778223423 371.987864303
642.365235747 744.866358193 371.424628515
641.972842368 746.50823988 371.424278041
641.565741258 746.705731591 371.424338197
641.156436755 746.68683659 371.424459871
640.747649871 746.718774905 371.424567092
640.338292537 746.694691467 371.424690241
639.929242147 746.700751879 371.42480482
639.519731544 746.661616516 371.424932247
639.111102758 746.70908099 371.425035055
638.70198512 746.708537225 371.425151511
638.293567191 746.776709237 371.425248432
637.884765755 746.807218448 371.42535606
642.777322503 745.174033207 370.861924743
642.380113564 746.342997167 370.861708717
641.974617564 746.69812059 370.86172406
641.565346527 746.682512101 370.861844799
641.156573976 746.71585806 370.86195162
640.746986695 746.669192359 370.862081188
640.338516088 746.732191087 370.86217958
639.928670056 746.660114468 370.862316372
639.519921566 746.695823317 370.862422522
639.110894912 746.704214806 370.862536438
638.702127058 746.738021919 370.862643129
638.293014279 746.7379554 370.862759449
637.884490906 746.79577209 370.862859314
642.791251111 746.557453963 370.299031447
642.383426667 746.683909837 370.299111798
641.974241899 746.676773473 370.299230128
641.565541289 746.717184478 370.299334941
641.156054615 746.680399111 370.299461701
640.747430655 746.728337537 370.299564374
640.337766682 746.674140274 370.299696083
639.928826455 746.691019418 370.299807586
639.519493137 746.669294446 370.299930064
639.111003405 746.730414965 370.30002899
638.701924017 746.733627617 370.300144378
638.29287826 746.740142967 370.300258827
637.884441201 746.806436301 370.300356282
643.182090573 744.77851353 369.736920885
642.79214958 746.661234676 369.736501943
642.38305106 746.662568461 369.736617865
641.97446539 746.714267163 369.736719469
641.564988359 746.678428853 369.736845959
641.156225439 746.712720552 369.736952512
640.74685379 746.687231352 369.73707606
640.33781772 746.694698089 369.737190239
639.928446085 746.669210207 369.737313787
639.519917935 746.726557746 369.737413785
639.110637349 746.710011515 369.73753479
638.701859987 746.742884936 369.737641746
638.293073058 746.774818828 369.737748969
637.884171015 746.795447799 369.737859406
644.818214196 744.762163631 369.173960327
644.417064857 745.54415599 369.173854314
644.00821078 745.569495494 369.173963412
643.591009927 744.775130168 369.174305545
642.785631999 746.036713576 369.17417949
642.383193133 746.692066425 369.174109479
641.973893359 746.673635776 369.17423102
641.565039336 746.69898055 369.174340117
641.155768398 746.683381849 369.174460853
640.746698712 746.687547205 369.17457597
640.337480516 746.677128 369.174695234
639.928961683 746.735390597 369.174794972
639.5221683 746.963103037 369.174846537
639.113577638 747.014311598 369.17494828
638.704043269 746.97284224 369.175076371
638.293674746 746.849453835 369.175227751
637.885726634 746.963764726 369.175311555
644.83171176 746.103253225 368.611079065
644.428180353 746.651311843 368.611039557
644.019129829 746.657359078 368.61115414
643.604421238 746.107749143 368.611426691
642.786415746 746.129227869 368.611653188
642.383109843 746.699432359 368.611607385
641.973858065 746.68571516 368.611727586
641.564941759 746.704943452 368.611838421
641.155555797 746.678048585 368.611962369
640.747219185 746.754206438 368.61205702
640.338714889 746.813896634 368.612156352
639.931044478 746.955479425 368.612232402
639.522458643 747.007162033 368.612334011
639.113245161 746.997205767 368.612453143
638.704539766 747.037146774 368.61255809
638.295345382 747.029066082 368.612676689
637.886903499 747.094885652 368.612774278
645.227759317 744.835779855 368.048823097
644.837133267 746.651224217 368.048423281
644.428053986 746.654447315 368.048538666
644.018936369 746.653905622 368.048655121
643.609746899 746.646307446 368.048773583
643.199958477 746.579888614 368.048908767
642.792038796 746.696991537 368.048991777
642.382830132 746.687508471 368.049110775
641.974081577 746.723210921 368.049216927
641.564379277 746.665249712 368.049349706
641.156095465 746.746592803 368.049442882
640.749455254 746.98934766 368.049490171
640.340366207 746.991611754 368.049605829
639.931435588 747.009434378 368.049717063
639.522025595 746.980179538 368.049841682
639.113348965 747.022945526 368.049945825
638.703823903 746.98239019 368.050073657
638.295257387 747.035969924 368.050174726
637.886393715 747.060367266 368.050284091
645.229180475 744.990891803 367.486279
644.836858341 746.639770234 367.485926537
644.427965988 746.661350875 367.486036703
644.018747759 746.65092847 367.486155968
643.609543874 746.64191465 367.486274832
643.20076649 746.674785905 367.486381789
642.79172071 746.681299092 367.486496239
642.382703797 746.690647143 367.486609883
641.973437537 746.675507712 367.486730488
641.564832743 746.725328397 367.486832626
641.157454561 746.895609933 367.486900518
640.749194565 746.979291915 367.486993029
640.340484302 747.018754922 367.487098112
639.930954516 746.977735609 367.487226075
639.522244326 747.017205769 367.487331156
639.112647484 746.969601199 367.487460991
638.704004398 747.015661417 367.487564198
638.294958525 747.022165381 367.48767865
637.886257678 747.062553046 367.48778347
645.22985845 745.073018675 366.923755651
644.836803862 746.649965575 366.923423638
644.427681467 746.648954635 366.923540227
644.018511155 746.643237962 366.923658154
643.609709825 746.673757621 366.923765779
643.200525084 746.666623893 366.923884109
642.791699811 746.694792144 366.923992403
642.382285076 746.665071634 366.924117154
641.974207311 746.766649817 366.924204577
641.566838818 746.937882837 366.924272198
641.158152235 746.979671369 366.92437662
640.749374916 747.012549023 366.924483575
640.339912234 746.97811977 366.924609664
639.931087046 747.006296399 366.924717955
639.521787241 746.987862738 366.924839498
639.11262175 746.982619453 366.92495729
638.703604753 746.991959316 366.925070936
638.294678755 747.010235751 366.925182042
637.886442873 747.096285895 366.92527388
645.240842348 746.167250751 366.360944569
644.836696685 746.654985655 366.360922211
644.427454473 746.642207984 366.361042145
644.018413547 746.649197758 366.36115646
643.60931988 746.65100813 366.361272247
643.200796534 746.708827455 366.361372111
642.791242784 746.665454854 366.361500743
642.382738529 746.725149001 366.361600074
641.976198986 746.97779012 366.361644551
641.566999717 746.969229644 366.361763287
641.158327794 747.01245782 366.361867299
640.748898672 746.981324396 366.361992452
640.340030309 747.005261056 366.362101948
639.930687429 746.982597122 366.362224693
639.521809475 747.005591806 366.362334457
639.112696608 747.005516535 366.36245078
638.703243536 746.972031045 366.362576602
638.294950266 747.052445339 366.362670042
637.885880377 747.056590836 366.362785165
645.243968507 746.489804373 365.798352869
644.836484042 746.649648343 365.798423729
644.427390434 746.651464456 365.798539514
644.018200928 746.643862799 365.798657977
643.609552983 746.689445771 365.798761319
643.200205267 746.666306943 365.798884199
642.791317728 746.688360313 365.798994231
642.383019301 746.768268092 365.799087815
641.975976585 746.97149446 365.799146341
641.567103424 746.994959803 365.799255972
641.157904262 746.986409866 365.799374704
640.748920923 746.999055158 365.799487411
640.339640357 746.982510812 365.799608416
639.930676082 746.997028289 365.79972059
639.52164 747.004493803 365.799834769
639.112273169 746.979477708 365.799958183
638.703965461 747.058474099 365.800052026
638.294416433 747.015565098 365.800180527
637.88612788 747.096442615 365.800273836
645.638420636 745.065650206 365.236141445
645.245389055 746.64485649 365.235808789
644.836372089 746.654199366 365.235922435
644.427096313 746.638125489 365.236043306
644.018261438 746.665350731 365.236151868
643.609076701 746.658217473 365.236270197
643.200352123 746.696274623 365.23637568
642.790788806 746.6519624 365.236504579
642.383118166 746.793522792 365.236580636
641.975974868 746.986871368 365.23664197
641.566655942 746.966559876 365.236764046
641.157960079 747.007437021 365.236868726
640.748645982 746.987599763 365.236990668
640.339375054 746.972001909 365.237111403
639.93086127 747.030760385 365.237211
639.521331442 746.989737027 365.237338965
639.112587835 747.025925381 365.237444978
638.703120226 746.991012292 365.237571205
638.294711885 747.060125808 365.237667859
637.88571883 747.071816891 365.237780836
645.644557828 745.683905782 364.673465679
645.2453777 746.659286905 364.673304687
644.836039631 746.637095417 364.673427297
644.4270419 746.648327231 364.673540406
644.018024833 746.657660223 364.673654054
643.609194765 746.685357535 364.673762482
643.200053176 746.682461704 364.673879606
642.790973915 746.685686779 364.673994991
642.383797169 746.875750539 364.674057259
641.975637633 746.969298267 364.674146966
641.5667405 746.990409473 364.674257266
641.157656415 746.993160785 364.674372785
640.74850528 746.989327402 364.674490176
640.339579443 747.007619745 364.674601278
639.930131012 746.97459004 364.674726969
639.521631622 747.034761997 364.674826164
639.11190538 746.974449568 364.674959612
638.703492414 747.04310899 364.675056395
638.294250077 747.03031899 364.675176332
637.885678683 747.08341969 364.675277538
645.646117949 745.852664834 364.110917702
645.245040458 746.641713146 364.110809683
644.835980372 746.646821324 364.110924532
644.426776516 746.637810422 364.111043396
644.018003973 746.671157135 364.111150217
643.608934223 746.675316279 364.111265336
643.199883708 746.68136436 364.111379918
642.79176731 746.779148576 364.111468421
642.384552276 746.965452246 364.111531757
641.975492131 746.97055459 364.111646609
641.566609324 746.993072688 364.111756508
641.157271264 746.97088214 364.111879119
640.748503447 747.004692923 364.111985808
640.339021608 746.968382355 364.112112432
639.930354652 747.012098412 364.112216306
639.52084868 746.973417802 364.112343604
639.112564945 747.054768423 364.112436778
638.70296807 747.007160653 364.112566615
638.294224319 747.043334891 364.112672632
637.885418085 747.073372881 364.112780394
646.05491738 745.83750423 363.54830571
645.653911928 746.633627252 363.54819568
645.245014789 746.654737799 363.54830598
644.835743784 746.639132416 363.548426718
644.426741212 746.649888865 363.548539962
644.017657126 746.652640083 363.548655481
643.608874986 746.68504435 363.548762571
643.201444098 746.85014978 363.548831934
642.793648854 746.979473253 363.54891147
642.384454576 746.971403009 363.549030066
641.975356154 746.972746394 363.549145985
641.566185805 746.96702605 363.549263913
641.157398915 746.9989638 363.549371135
640.747998493 746.970648865 363.549495487
640.339484795 747.029415719 363.549595081
639.929748897 746.968155008 363.549728799
639.521220866 747.025514311 363.549828794
639.111805977 746.995778649 363.549953549
638.703234788 747.048899489 363.550054748
638.293887107 747.025764048 363.550177627
637.885440311 747.091101196 363.550275354
646.452729658 744.743337338 362.986000473
646.062620458 746.609539553 362.985586226
645.653862241 746.644293156 362.985692648
645.244572074 746.626805989 362.985813921
644.83561265 746.641799771 362.98592596
644.42646628 746.638434412 362.986043218
644.017693725 746.671779901 362.98615004
643.609083837 746.721100279 362.98625232
643.202376617 746.957274395 362.986301479
642.793556054 746.985905308 362.986409641
642.38431385 746.973128389 362.986529575
641.975172298 746.97023604 362.986646699
641.56631831 746.995584392 362.986755794
641.156956175 746.971029449 362.986879077
640.748423342 747.027917153 362.986979206
640.338677901 746.96571927 362.98711319
639.929876712 746.996252764 362.987220811
639.520528973 746.973111582 362.987343691
639.112197251 747.049749696 362.987438205
638.702806478 747.022382381 362.987562287
638.293904583 747.043025847 362.98767272
637.885443418 747.106951773 362.987770848
646.456535603 745.132650148 362.423389794
646.062633078 746.626324482 362.423081455
645.653520205 746.626248646 362.423197778
645.244709335 746.655831318 362.423305669
644.83536648 746.633169924 362.423428413
644.426320759 746.639688852 362.423542862
644.019201368 746.83538526 362.423603528
643.611363076 746.960481092 362.423684266
643.202561693 746.990995577 362.423791892
642.793137367 746.960333092 362.423916911
642.384240279 746.981448722 362.42402721
641.975113057 746.979963735 362.424143934
641.565928317 746.9728301 362.424262263
641.157064712 746.997233937 362.424371627
640.747731372 746.975506988 362.424494105
640.339097825 747.022503911 362.424597046
639.929390848 746.964083431 362.424729956
639.520709348 747.006371045 362.424834236
639.111749792 747.021351933 362.424946278
638.702641762 747.021751743 362.425062466
638.294013043 747.069222806 362.425165272
637.884938394 747.072900845 362.425280528
646.456399647 745.134844022 361.86088917
646.062458748 746.624749704 361.860581902
645.653556795 746.645387523 361.860692337
645.244372098 746.638258123 361.860810665
644.835259307 746.638190381 361.860926986
644.426927236 746.714794144 361.86102151
644.020301522 746.958972647 361.861068393
643.611452281 746.984787138 361.861177356
643.202272359 746.978126703 361.861295551
642.793130825 746.975236142 361.861412674
642.384003674 746.973758214 361.861529396
641.974718279 746.956739634 361.861650536
641.566103891 747.005618152 361.861752942
641.156540497 746.961298307 361.861881843
640.748122771 747.029490271 361.861978758
640.338482624 746.977632837 361.862109803
639.929470552 746.987456347 361.862223311
639.52065002 747.016090175 361.862331473
639.111556322 747.017897441 361.862447261
638.702692735 747.042303065 361.862556624
638.293335438 747.018223298 361.862679771
637.885133181 747.107575669 361.86277067
646.054287332 745.837811648 361.298305623
645.653243537 746.630169124 361.298196663
645.244331979 746.649863744 361.298307366
644.835075427 746.635677676 361.2984277
644.42685362 746.723110054 361.298519146
644.020338116 746.978111901 361.298562952
643.611105469 746.966273569 361.298682619
643.202146035 746.98126641 361.298794658
642.793033189 746.98119321 361.298910981
642.383656803 746.955238811 361.299034661
641.974706956 746.971173155 361.299146433
641.565527015 746.964510837 361.299264628
641.156821595 747.004449397 361.299369576
640.747473872 746.98130991 361.299492456
640.338629439 747.007596565 361.299601284
639.92915247 746.971764184 361.299727773
639.520260041 746.993337389 361.299837941
639.111707938 747.048332673 361.299938608
638.702154136 747.004954894 361.300067242
638.293769876 747.076433372 361.300163222
637.884460419 747.057051713 361.300285034
645.63713611 745.063865914 360.736141952
645.241125604 746.350523434 360.735892466
644.834901145 746.634107698 360.735928147
644.427187421 746.771436874 360.736005407
644.019991285 746.959596449 360.736068216
643.61106058 746.977410696 360.736179453
643.202000497 746.982519156 360.736294302
642.79274389 746.968327818 360.736414638
642.383822787 746.987084982 360.736525607
641.974412833 746.957834 360.736650225
641.565913531 747.018014614 360.736749418
641.156302225 746.9689896 360.736879657
640.747630383 747.012225777 360.736983667
640.338244301 746.985319144 360.737107617
639.929011689 746.9734842 360.737227284
639.520301475 747.012951913 360.737332365
639.110977746 746.992168821 360.737454575
638.702521573 747.056584982 360.737552564
638.293068346 747.023084244 360.737678389
637.884842123 747.110082949 360.737769958
645.636204908 744.987961635 360.173663531
645.242355082 746.486811229 360.17335372
644.834932922 746.652773847 360.17342284
644.427425402 746.810353645 360.173494343
644.019831415 746.959441739 360.17356826
643.610915079 746.978667113 360.173679096
643.201744726 746.972946394 360.173797024
642.792909929 747.000179353 360.173905583
642.383279501 746.949276413 360.174036356
641.974684341 747.000043209 360.174138225
641.565197657 746.963256902 360.174264985
641.156492153 747.003187178 360.174369935
640.747293108 746.994648723 360.174488664
640.338328822 747.009165071 360.174600838
639.929125065 747.000163863 360.174719699
639.519652725 746.964786235 360.174846058
639.11168532 747.077202445 360.174930401
638.701575589 746.979229007 360.175074555
638.293498027 747.080827142 360.175161973
637.884107116 747.053446275 360.175286059
646.45177453 744.742810962 359.611000622
646.056980248 746.148909231 359.61071718
645.652701543 746.623578535 359.610698537
645.243866641 746.650801141 359.610807099
644.834725062 746.647906252 359.610924224
644.427500256 746.833250254 359.610987833
644.019781708 746.970105761 359.611065228
643.610745545 746.97756337 359.61117941
643.201675897 746.98173249 359.611294526
642.792476769 746.973185847 359.611413257
642.383435904 746.980181739 359.61152757
641.973973231 746.945753331 359.611653659
641.565334947 746.992285149 359.611756732
641.156217229 746.991733477 359.611873191
640.747214606 747.002484844 359.611986436
640.33834146 747.025951694 359.612096066
639.928701462 746.974108943 359.612227106
639.519962509 747.010754403 359.61233299
639.11071539 746.99749478 359.612453061
638.702172914 747.05343552 359.612553459
638.292973788 747.044889065 359.61267219
637.884196452 747.07776512 359.612779145
646.456376677 745.210315737 359.048367714
646.061596955 746.61784386 359.048083866
645.652484113 746.617771035 359.048200188
645.243639654 746.644055149 359.048309017
644.834555599 746.646809473 359.048424536
644.426262082 746.727199389 359.048517983
644.01959305 746.967123904 359.048566076
643.610513758 746.970345967 359.048681461
643.201477619 746.977805834 359.048795642
642.792431904 746.984325327 359.04891009
642.383093831 746.962133556 359.049032701
641.974120087 746.975721012 359.04914514
641.5649784 746.972815486 359.049262267
641.156201055 747.0056906 359.049369223
640.747016345 746.998559977 359.049487552
640.337889174 746.997079978 359.049604274
639.928857874 747.005015116 359.04971832
639.519428697 746.973876328 359.049843474
639.110962926 747.037349854 359.04994173
638.701730212 747.025504933 359.050061399
638.292991176 747.062142204 359.050167285
637.884089224 747.082780118 359.05027772
646.453845402 744.977274373 358.485933966
646.061398691 746.613918616 358.485584981
645.65237697 746.622794504 358.48569876
645.243345564 746.630719193 358.485812808
644.834438848 746.650889272 358.485923376
644.425273325 746.645642881 358.486041169
644.018125031 746.83850085 358.486102642
643.610411387 746.975838022 358.4861799
643.201341686 746.980001872 358.486295018
642.792133015 746.970518148 358.486414016
642.383312561 746.999159695 358.486522175
641.973869066 746.966614765 358.486647729
641.56509178 746.999495621 358.486754682
641.155815915 746.983412991 358.486875556
640.74691399 747.004053539 358.48698599
640.338069532 747.030337746 358.487094819
639.928525372 746.987906931 358.487223183
639.519637865 747.009963407 358.487333215
639.110606426 747.017884897 358.487447264
638.70185781 747.053581324 358.487553417
638.292931897 747.071866136 358.487664521
637.883771149 747.067088708 358.487782181
646.058101266 746.305636652 357.923172624
645.652154731 746.616514746 357.923200545
645.243262362 746.638093787 357.923310712
644.834269324 746.64978647 357.923423689
644.425099006 746.644069233 357.923541616
644.016043703 746.649647128 357.923656332
643.609063062 746.858969653 357.923713125
643.201057174 746.967606574 357.923798542
642.792265564 746.99908082 357.923905895
642.382850691 746.969346664 357.92403065
641.974059022 747.000815073 357.924138006
641.564677803 746.974386063 357.924261821
641.155938775 747.011024087 357.924367707
640.74680204 747.008604843 357.924484696
640.337550246 746.994886139 357.924604898
639.928969393 747.047058039 357.924706367
639.519271813 746.989560335 357.924839015
639.11052332 747.025268903 357.924945165
638.701396016 747.023775822 357.925061891
638.292728843 747.067470515 357.92516577
637.88407609 747.112581324 357.925269247
646.046037457 745.136441581 357.361005018
645.648862095 746.308703064 357.360788054
645.241363231 746.467132896 357.360859315
644.834119 746.650569217 357.360923467
644.424972655 746.647206305 357.361040724
644.015778353 746.639133613 357.361159321
643.608879408 746.856479251 357.361213833
643.201089009 746.986278464 357.361293233
642.791707781 746.959848513 357.361417049
642.383040637 747.003546031 357.361520928
641.973601914 746.971469783 357.361646348
641.564695299 746.991649745 357.361756913
641.155649449 746.99815606 357.361871365
640.74666124 747.010322977 357.361984207
640.337941439 747.048849279 357.362089556
639.928368472 747.003589341 357.362218725
639.51968234 747.045422109 357.362323134
639.110195603 747.008630529 357.362449895
638.701480514 747.047619584 357.362555112
638.292607338 747.071083515 357.362664743
637.883791608 747.100188942 357.36277277
644.83145868 746.404854917 356.798493322
644.424846302 746.650343094 356.798539833
644.015723901 746.649331589 356.798656422
643.60857564 746.842192849 356.798717894
643.200804415 746.973875072 356.79879676
642.791869018 746.991228543 356.798908128
642.382631512 746.978912966 356.799027931
641.973753527 747.001904639 356.799137696
641.564535208 746.991473388 356.799256963
641.155427243 746.991879503 356.799373149
640.746621187 747.021934998 356.799480906
640.337273479 746.998796923 356.799603786
639.928721402 747.053794748 356.799704452
639.51922992 747.016537218 356.799831346
639.110352049 747.039540091 356.799941108
638.701267949 747.042289896 356.800056628
638.292279664 747.054449378 356.800169472
637.883799385 747.116498225 356.800268134
644.827274012 746.009440239 356.236105735
644.424604904 746.642181834 356.236042153
644.016665966 746.757393755 356.236125701
643.609340625 746.932864579 356.236192117
643.200764341 746.985485115 356.236293459
642.791608396 746.981179382 356.236410985
642.38273522 747.00464322 356.236520616
641.973358814 746.978686844 356.236644297
641.564447375 746.998393135 356.236754996
641.155353614 747.000194189 356.236870785
640.746183195 746.994466976 356.236988715
640.337616821 747.048060733 356.23708978
639.928211589 747.019273537 356.237214266
639.51948225 747.056863137 356.237319881
639.110201632 747.040313709 356.237440888
638.701160684 747.047301317 356.237555203
638.292268379 747.068886664 356.237665368
637.883198606 747.07304355 356.237780488
644.823912027 745.694818068 355.67369518
644.425523151 746.747904924 355.673512097
644.018600102 746.962883344 355.673567281
643.609539909 746.967980981 355.673682134
643.200700305 746.994741871 355.673790827
642.791534783 746.989495573 355.67390862
642.382412362 746.988482091 355.67402521
641.973572725 747.015239782 355.674133905
641.564301741 746.999636469 355.674254642
641.155164956 746.997212331 355.674371633
640.746373304 747.028682436 355.674478988
640.337073488 747.010247646 355.67460053
639.928344138 747.047836115 355.674706146
639.519101765 747.035042633 355.674826085
639.11032448 747.067923582 355.674933038
638.70109186 747.056087885 355.675052705
638.291897526 747.048012087 355.675171302
637.883340626 747.102536242 355.675272103
644.822093759 745.531798399 355.111241525
644.426460761 746.855529472 355.1109815
644.018334732 746.952367854 355.111070271
643.609782623 747.007362573 355.111170938
643.200430182 746.983759675 355.11129395
642.79133172 746.985099106 355.11140987
642.382396181 747.002438555 355.111521243
641.973302482 747.004245728 355.11163703
641.56431438 747.016423186 355.11174987
641.155019415 746.998464794 355.111871277
640.746007324 747.008286422 355.111984786
640.337311394 747.04915698 355.112089469
639.92792053 747.021780724 355.112213553
639.519344532 747.074429307 355.112314887
639.109877037 747.039527419 355.112441111
638.700941531 747.056870162 355.112552482
638.291929358 747.066683695 355.112665994
637.883065679 747.091080282 355.11277536
644.815690348 744.918489444 354.548915885
644.42508392 746.735860776 354.548515521
644.018333004 746.967743727 354.5485659
643.609277597 746.973311362 354.548680618
643.200231893 746.979831984 354.548795066
642.79130122 746.997649337 354.548906302
642.381958331 746.974984461 354.549029048
641.973425419 747.031864448 354.549129179
641.564120855 747.012963329 354.549250854
641.155132703 747.025135894 354.549363695
640.745976811 747.020835336 354.549481219
640.336744107 747.008991451 354.549600888
639.928043487 747.049401421 354.549705701
639.518772395 747.033787473 354.549826442
639.109951956 747.062430525 354.5499346
638.70077205 747.055771594 354.550052795
638.291620903 747.051937082 354.550170187
637.883212568 747.121051257 354.550266839
644.41288721 745.553614053 353.986351625
644.018000525 746.950637707 353.986070763
643.609156107 746.976925774 353.986179591
643.200052859 746.977795207 353.986295645
642.790983159 746.981959245 353.986410763
642.382023748 746.996954345 353.986522802
641.972867707 746.992639199 353.98664033
641.564301259 747.04622571 353.986741397
641.154963156 747.024030833 353.986864009
640.745821608 747.021138954 353.986981133
640.336857359 747.035658973 353.987093306
639.927600711 747.021463587 353.987213643
639.518871322 747.059048198 353.98731926
639.109605104 747.043913001 353.987439864
638.700664911 747.060795439 353.987551367
638.291643087 747.069661162 353.987665148
637.882755457 747.09170559 353.987775182
644.002205331 745.41499765 353.424007334
643.607918786 746.870958747 353.423709716
643.199916927 746.97999134 353.423795021
642.79085201 746.984625094 353.423910005
642.381676864 746.978433717 353.424028067
641.972913963 747.0127273 353.424134619
641.563609377 746.99382411 353.424256295
641.15490395 747.03376201 353.424361242
640.745661683 747.020978879 353.424481178
640.336572846 747.02326358 353.42459683
639.927690089 747.045786572 353.424706729
639.518414255 747.029706955 353.424827602
639.109565055 747.055525399 353.424936563
638.700528923 747.062986019 353.425050744
638.291310613 747.052555708 353.425170011
637.882691487 747.100968839 353.425272549
643.588341701 744.963913625 352.861751876
643.184495111 745.481019339 352.861721168
642.786251 746.54832304 352.861534043
642.381579311 746.984398972 352.861526371
641.972480836 746.985737086 352.861642292
641.563708285 747.019082952 352.861749114
641.154442086 747.003949638 352.861869718
640.745717445 747.042000577 352.861975202
640.336475245 747.029224035 352.862095136
639.927376777 747.030562902 352.862211057
639.51850841 747.054499092 352.862320553
639.10920385 747.03559835 352.862442228
638.700230042 747.049179593 352.862554669
638.291208266 747.058050117 352.862668449
637.882143295 747.062678508 352.862783434
642.778520442 745.804680043 352.299245455
642.380178381 746.862364471 352.299061065
641.972388034 746.992168858 352.299140464
641.563318306 746.996330167 352.299255582
641.154435556 747.018853817 352.299365481
640.745332291 747.019721555 352.299481536
640.336300979 747.027655563 352.299595582
639.927322327 747.040761067 352.299708157
639.518185521 747.038334859 352.299825149
639.10917816 747.048620933 352.299938526
638.700012576 747.043368612 352.300056321
638.290914184 747.044714914 352.30017224
637.882069722 747.070998746 352.300281069
642.774343778 745.410051388 351.736857645
642.378068258 746.670682847 351.736615558
641.969458503 746.720016308 351.736717835
641.560647391 746.749575358 351.736825733
641.153786983 746.970705455 351.736879169
640.745167645 747.019097788 351.736981713
640.336126668 747.026082668 351.737096029
639.926975513 747.022247309 351.737213421
639.51811674 747.047125662 351.73732265
639.108864864 747.033398863 351.737442854
638.699924637 747.050278007 351.737554357
638.290864479 747.055379125 351.737669208
637.88183793 747.063780873 351.737783121
642.373227652 746.210851016 351.174246285
641.968867419 746.67751377 351.174229918
641.559888819 746.690624356 351.174342492
641.151183096 746.730533176 351.174447448
640.743383272 746.859406883 351.174527112
640.335803962 747.009936408 351.174600619
639.926844388 747.024915512 351.174712662
639.517712375 747.022960056 351.17482952
639.108834362 747.045948905 351.174939286
638.699529855 747.027053434 351.175060959
638.290733336 747.05804554 351.17516845
637.88176907 747.072563864 351.175280624
642.358528747 744.782873254 350.612152249
641.954273811 745.259876837 350.612132942
641.546824161 745.423139817 350.612202829
641.145011364 746.139976532 350.612115339
640.741685363 746.708207305 350.612070097
640.333267203 746.776356538 350.612167024
639.926473755 747.004062579 350.61221859
639.51756208 747.023745626 350.612329296
639.108377356 747.016613592 350.612447626
638.699427495 747.032546619 350.612559397
638.290372156 747.038120937 350.612674114
637.880708373 746.983942404 350.612805819
640.72208531 744.798906579 350.050112897
640.324646326 745.945278734 350.049903294
639.922423583 746.621856241 350.049827249
639.514819388 746.769941863 350.049901451
639.105984488 746.797164749 350.050010013
638.698180031 746.925583426 350.050089806
638.288818057 746.901044392 350.050213084
637.878368139 746.769662427 350.050366737
639.904586071 744.885647909 349.487820841
639.500322187 745.361772775 349.487801783
639.09687465 745.918067886 349.487759934
638.693483144 746.479865668 349.487716521
638.286770102 746.715468053 349.487765842
637.878078998 746.756812562 349.48787039
638.273025066 745.381166187 348.925645175
637.865177702 745.50537114 348.925726166