VERSION 0.7
FIELDS x y z
SIZE 4 4 4
TYPE F F F
COUNT 1 1 1
WIDTH 896
HEIGHT 1
VIEWPOINT 0.0 0.0 0.0 1.0 0.0 0.0 0.0
POINTS 896
DATA ascii
679.039034116 617.757149845 372.649962893
679.476832156 618.402264828 372.660283243
679.886450715 618.475310547 372.670686562
680.256768041 617.750505269 372.681205595
681.066513446 617.703906268 372.702040178
681.474217048 617.738076618 372.712449135
681.871299449 617.556626857 372.722889364
678.260816489 618.189021829 372.153870605
678.690043636 618.660139842 372.16421619
679.111562205 618.974766661 372.174584472
679.519006564 619.003674143 372.184994192
679.923784668 618.978454188 372.195411762
680.322542965 618.831026658 372.205847057
680.722362228 618.705137702 372.216279227
681.137693032 618.894147238 372.226665727
681.543108847 618.881873409 372.23708142
681.946965634 618.837949892 372.247501703
682.315491582 618.076778013 372.25802601
677.879373806 618.433202414 371.668219451
678.317236104 619.079621887 371.678539612
678.721517859 619.044325605 371.688958644
679.130804123 619.11062544 371.69936294
679.545216724 619.280994609 371.709752144
679.948506169 619.225553532 371.720174097
680.365709102 619.452568986 371.730555085
680.791625774 619.856481323 371.740910417
681.191966379 619.741176094 371.751341053
681.561313212 618.996668912 371.761862943
681.960284588 618.853567086 371.77229761
682.365156719 618.830255984 371.782714904
682.743603241 618.270480828 371.793210002
677.467578183 618.061190522 371.182657665
677.923228725 619.068727636 371.192925452
678.328972439 619.063110453 371.203340179
678.754981541 619.468899222 371.213695239
679.189540222 620.048252245 371.224025127
679.598921157 620.116473973 371.234429145
680.003084966 620.078783282 371.244848524
680.408618726 620.068903863 371.255263869
680.812144819 620.018266949 371.265685126
681.217820557 620.011269795 371.276100053
681.603518556 619.598706272 371.286573801
681.972398796 618.844726831 371.297097065
682.393069139 619.142133894 371.307467844
682.806891879 619.300528338 371.317858784
683.143321337 617.887768318 371.328477593
677.511366866 618.695371098 370.707363861
677.937749502 619.10874294 370.717717821
678.353529457 619.306870633 370.728102999
678.801715834 620.162878363 370.738392762
679.206871792 620.145329203 370.74880922
679.610657633 620.099965416 370.759229712
680.015718963 620.080495225 370.769646448
680.419434009 620.033694236 370.780067148
680.826314309 620.051150791 370.790478529
681.229415032 619.991878492 370.800901038
681.632565329 619.933612579 370.811323401
682.024331415 619.644236754 370.821779283
682.445071458 619.943058786 370.832149856
682.849400548 619.908723451 370.842568749
683.250238733 619.803519559 370.852997919
683.583740507 618.331324887 370.863625348
676.277847141 618.126779706 370.20100276
676.676724125 617.981761638 370.211437705
677.519748748 618.61076121 370.232174305
677.953027 619.164120351 370.242507962
678.39446014 619.883031203 370.252817609
678.814562504 620.168907758 370.26319006
679.218065024 620.117792289 370.273611386
679.62388212 620.113664839 370.284025897
680.027668008 620.068302011 370.294446389
680.434194125 620.07856834 370.304858813
680.837011173 620.013537167 370.315282157
681.242733826 620.007492427 370.325696946
681.646992135 619.971720177 370.336116047
682.052856651 619.9685554 370.346530418
682.456595285 619.922233255 370.356951049
682.863026685 619.930576732 370.367363752
683.266906879 619.887128414 370.377783966
683.665594594 619.738268003 370.388219468
684.020016628 618.690773749 370.398785301
684.371092613 617.575351644 370.409360987
675.908571731 618.617967066 369.715315782
676.343858656 619.212104109 369.725643525
676.751446885 619.243932292 369.736052821
677.116549495 618.413263495 369.746587208
677.559869712 619.170483735 369.756891299
678.017782347 620.223943411 369.767152426
678.422017027 620.187691455 369.777571596
678.826062881 620.147606164 369.787991322
679.23110059 620.127656459 369.798408128
679.635169866 620.088046655 369.808827785
680.040987175 620.08392352 369.819242296
680.444607702 620.035203706 369.829663275
680.850353913 620.029637232 369.840077994
681.25501373 620.002015964 369.850495913
681.660476507 619.990695508 369.860911467
682.064356844 619.947250067 369.871331681
682.470812048 619.956076798 369.881744313
682.87459753 619.910705723 369.892164806
683.279824151 619.89459108 369.902581056
683.684672992 619.870807175 369.912998418
684.090136052 619.859492472 369.923413972
684.480041718 619.532348419 369.933875331
684.788646205 617.55471602 369.944576065
675.484399261 617.994693859 369.229790437
675.951077632 619.226105985 369.240025754
676.39569669 620.009693886 369.250326021
676.816460239 620.30899311 369.260696525
677.217908748 620.21617934 369.271123899
677.624741079 620.232662096 369.281535421
678.029306122 620.203116825 369.291953619
678.434297021 620.182216816 369.302370563
678.838129947 620.137808893 369.312790916
679.24411249 620.137040155 369.32320494
679.647685894 620.087363709 369.333626057
680.053101359 620.075082784 369.344041751
680.456934465 620.030678506 369.354462103
680.863507719 620.041901756 369.364874388
681.267151715 619.993658388 369.375295298
681.672779791 619.98569367 369.385710365
682.077935901 619.968147579 369.396126823
682.481887037 619.926139435 369.406546828
682.887680281 619.921527772 369.416961409
683.292411021 619.895346294 369.427379119
683.697779529 619.882112094 369.437794951
684.101636165 619.838185508 369.448215234
684.507028156 619.825428042 369.458630997
684.830113873 618.141777872 369.469289094
675.519990064 618.462449973 368.754520769
675.988410998 619.729237731 368.764750956
676.424174841 620.333056646 368.775077295
676.828078836 620.290091486 368.785497439
677.232998727 620.26774996 368.795914592
677.636382838 620.214230685 368.806336267
678.042507306 620.216343158 368.816749873
678.445655482 620.158034202 368.827172242
678.851519862 620.154866645 368.837586614
679.255541821 620.114296278 368.848006411
679.66091032 620.101061886 368.858422243
680.064247303 620.046585883 368.868844056
680.471316433 620.067875871 368.879254881
680.874252051 620.005251763 368.889677876
681.280659655 620.013112178 368.900090649
681.684799716 619.974939384 368.910510098
682.090026507 619.958828192 368.920926347
682.494497168 619.927366876 368.931344823
682.901164615 619.940502335 368.94175683
683.305493838 619.906169684 368.952175722
683.709610345 619.867518718 368.96259524
684.115049666 619.855722103 368.973010864
684.519591292 619.82570144 368.98342913
684.84759099 618.241809575 368.994072759
674.702425724 618.09554768 368.25854433
675.098703074 617.897754651 368.268986929
675.520603602 618.220135579 368.279354085
676.001800648 619.746290113 368.289546656
676.435651404 620.311271606 368.299878628
676.84076014 620.2927638 368.310295224
677.244262617 620.241647467 368.320716551
677.650245188 620.240879304 368.331130575
678.053393445 620.182571979 368.341552944
678.459919212 620.192831213 368.351965368
678.862807551 620.12924731 368.362388503
679.268742829 620.127519063 368.372802666
679.671891006 620.069210108 368.383225035
680.078558676 620.082350073 368.393637042
680.481942659 620.02882821 368.404058717
680.888326922 620.036214767 368.414471558
681.291923522 619.987009206 368.424892607
681.699087157 620.010217731 368.435303154
682.101337694 619.933685879 368.445728166
682.508312286 619.953056658 368.456139269
682.912546758 619.916800483 368.46655844
683.317726143 619.899726906 368.476974829
683.7229529 619.883615043 368.487391078
684.127754407 619.858870191 368.49780858
684.532437764 619.831726808 368.508226429
684.860224949 618.24352075 368.518870683
674.777030525 619.355323642 367.783159794
675.180651037 619.30660354 367.793580772
675.542141906 618.402613104 367.804125793
675.943185568 618.301580569 367.814554358
676.432208028 619.986598167 367.824723888
676.852449375 620.275296214 367.83509593
677.257558159 620.256789366 367.845512527
677.661722015 620.219099634 367.855931906
678.066759545 620.199146285 367.866348712
678.471584757 620.174882674 367.876766144
678.876433735 620.15110155 367.887183506
679.279062321 620.082244424 367.897607405
679.68632023 620.107366789 367.908017674
680.089255786 620.044741435 367.918440669
680.494765652 620.034376939 367.928856085
680.900015898 620.018741906 367.939272265
681.304935581 619.996396162 367.949689418
681.709193876 619.960623625 367.960108519
682.116428382 619.985270886 367.970518857
682.520284763 619.941339123 367.980939141
682.926243624 619.940089623 367.991353235
683.329958566 619.893286525 368.001773936
683.735610655 619.885809281 368.012188933
684.139585289 619.844278158 368.022608869
684.545544102 619.8430277 368.033022963
684.883558608 618.462445612 368.043637105
674.78949926 619.353680612 367.307958204
675.193261414 619.307835968 367.318378766
675.593648113 619.193466475 367.328809266
675.960844573 618.405304773 367.339337488
676.431379139 619.71500119 367.349561451
676.86501254 620.275570187 367.359894063
677.269176746 620.23788755 367.370313441
677.673552906 620.204507792 367.380732195
678.078708732 620.186955947 367.391148653
678.482730861 620.146389032 367.401568449
678.888855093 620.14849671 367.411982056
679.291341895 620.07676125 367.422406373
679.699827944 620.126815977 367.432813026
680.101039474 620.029191331 367.443241097
680.508793491 620.064385133 367.453649905
680.910949608 619.985936469 367.464075195
681.318207654 620.011061614 367.474485464
681.721757169 619.960900188 367.484906652
682.128141092 619.968279842 367.495319494
682.532658733 619.937772281 367.505737831
682.937460429 619.913031265 367.516155332
683.343395985 619.911308676 367.526569494
683.747016342 619.862585409 367.536990473
684.153731177 619.87668287 367.547402341
684.557918224 619.839463927 367.557821652
684.943525156 619.425051665 367.568295668
685.257468294 617.555798764 367.578980683
674.802487506 619.362584122 366.832755086
675.220252391 619.601007723 366.843134419
675.663102364 620.348681583 366.853439895
676.06908272 620.34786846 366.863853925
676.47319926 620.309218165 366.874273443
676.877457447 620.273443424 366.884692544
677.281692566 620.237200385 366.895111713
677.686659377 620.215811369 366.905528728
678.090397859 620.169486155 366.915949359
678.496333094 620.167757045 366.926363523
678.899127042 620.102256905 366.936786935
679.305676718 620.113001503 366.947199289
679.708706656 620.052292194 366.957622007
680.114311396 620.043853715 366.968037143
680.518711252 620.010955006 366.978455827
680.923796425 619.991968836 366.988872493
681.328621277 619.967697938 366.999289926
681.734934576 619.973643842 367.009702976
682.139476008 619.943619248 367.020121243
682.546096148 619.955794335 367.03053339
682.949858275 619.909949116 367.040953952
683.355982648 619.912059671 367.051367558
683.761020239 619.892107568 367.061784364
684.165301928 619.856809943 367.072203396
684.570717648 619.844534197 367.082619089
684.973867015 619.786249399 367.093041455
685.334931996 618.873613045 367.10358773
685.669473905 617.422534075 367.114212096
674.814672938 619.355189794 366.357554331
675.264015786 620.234674942 366.367840689
675.677127865 620.378642325 366.378233722
676.080842458 620.331832129 366.388654423
676.485786163 620.309974049 366.399071506
676.888697891 620.246864964 366.409494572
677.295460155 620.261925288 366.4199063
677.69707317 620.172451145 366.430333189
678.104685417 620.204766899 366.440742415
678.506369128 620.116727944 366.451169096
678.913060455 620.130348191 366.461581033
679.316846263 620.084983732 366.472001525
679.71890857 620.004630628 366.482427092
680.121915531 619.943454849 366.492849877
680.530235358 619.990135132 366.503257019
680.935084001 619.9663472 366.513674382
681.340853937 619.961262351 366.524089032
681.746222142 619.948022014 366.534504865
682.151803092 619.939100569 366.544920071
682.557809179 619.938809811 366.555334026
682.962515949 619.912141723 366.565751806
683.368947386 619.920485968 366.576164509
683.774338967 619.907720159 366.586580273
684.179730986 619.894963269 366.596996035
684.583091751 619.840970041 366.607417779
684.989027374 619.839248793 366.617831941
685.39269475 619.79148005 366.628252782
685.788409319 619.582262059 366.638697038
686.110759966 617.883689294 366.649357299
674.826220424 619.334844545 365.882355454
675.272684555 620.155889121 365.892650288
675.688675133 620.358292663 365.903034846
676.093783784 620.339783133 365.913451443
676.497144771 620.285794411 365.923873186
676.902442049 620.271114188 365.934289227
677.305378016 620.208497176 365.944712221
677.711502484 620.210609648 365.955125828
678.114674177 620.152778097 365.965548128
678.520255051 620.143855118 365.975963334
678.924253659 620.102810702 365.9863832
679.327590926 620.048340452 365.996805012
679.705658521 619.480872723 366.007301226
680.107391092 619.393825682 366.017727763
680.521189691 619.551730054 366.028118775
680.927953359 619.566818867 366.038530499
681.322715817 619.338272157 366.048977558
681.750332658 619.776699472 366.059327885
682.164295372 619.937935519 366.069718413
682.569427426 619.919901092 366.080134941
682.97595308 619.930158025 366.090547366
683.380801676 619.906369134 366.100964729
683.787280151 619.915668284 366.111377292
684.191821763 619.885647334 366.121795559
684.597379035 619.876245223 366.132210835
685.000739786 619.822251708 366.142632579
685.406462538 619.81620898 366.153047368
685.810201185 619.769887122 366.163467998
686.205986677 619.562108922 366.173912046
686.51142693 617.520239695 366.184622096
674.840623888 619.372478284 365.407148168
675.288575671 620.223723552 365.417438623
675.701120253 620.356170214 365.427833326
676.10504809 620.313689077 365.4382534
676.510392968 620.299975171 365.448669302
676.914344057 620.257966068 365.459089307
677.31843734 620.218843641 365.469508893
677.72257742 620.18067123 365.479928342
678.126056386 620.129077588 365.490349738
678.533857591 620.165229364 365.500758407
678.935281695 620.071920158 365.511185852
679.333047027 619.904334521 365.52162407
679.693618101 618.981671425 365.532171799
680.053183216 618.038586423 365.54272249
680.502414413 618.915804956 365.553009177
680.905847219 618.863274241 365.563430708
681.311073746 618.847157679 365.573846958
681.736797171 619.24714693 365.58420286
682.176480559 619.930536205 365.594517658
682.582722665 619.935036854 365.604930918
682.987878373 619.917482611 365.615347377
683.393648441 619.912400447 365.625762026
683.79880403 619.894843808 365.636178485
684.205353319 619.905580543 365.646590841
684.609753105 619.872680395 365.657009525
685.014885504 619.854652968 365.667426052
685.41815157 619.79873727 365.677848074
685.823898249 619.79318029 365.688262793
686.227967364 619.753567226 365.698682451
686.583272268 618.723996041 365.709245685
674.878485748 619.886338932 364.931871815
675.309661354 620.397012447 364.942211663
675.713234612 620.347333027 364.95263278
676.117776696 620.317321666 364.963051046
676.523333883 620.307917829 364.973466322
676.926316675 620.246251409 364.983889178
677.331874472 620.236859942 364.994304453
677.733558003 620.148817343 365.004731135
678.14159543 620.189764647 365.015139109
678.543279287 620.101728664 365.025565789
678.93989134 619.910730406 365.036007403
679.261154459 618.190079836 365.046670866
680.061573524 617.954147582 365.067532909
680.513089405 618.877747293 365.077812869
680.918481188 618.864985608 365.088228633
681.323896743 618.852706505 365.098644326
681.731199692 618.878743227 365.109054463
682.177096076 619.688262005 365.119350969
682.594742534 619.924281416 365.129730651
683.000772345 619.924472283 365.140144536
683.405455518 619.89732516 365.150562385
683.811981107 619.90758075 365.160974811
684.216876905 619.884750122 365.171392034
684.623142897 619.889735654 365.181805224
685.026739803 619.840536326 365.192226272
685.431565152 619.816275495 365.202643703
685.835941369 619.782896888 365.213062457
686.241168151 619.766785505 365.223478706
686.618815345 619.190783269 365.233976158
686.934180916 617.350407067 365.244656985
674.883538546 619.73414559 364.45669206
675.321114466 620.374751344 364.467013064
675.725585434 620.343296262 364.477431539
676.130457523 620.319984295 364.487848832
676.534149223 620.272709353 364.498269601
676.940604167 620.28153081 364.508682234
677.342642249 620.200685916 364.519107872
677.748435692 620.196078281 364.529522453
678.151607551 620.138250086 364.539944752
678.557401381 620.133650313 364.550359332
678.903425332 618.915667305 364.560949892
680.061336994 617.694576038 364.592368728
680.520270579 618.768761928 364.602626848
680.931375005 618.871972114 364.613025792
681.33660163 618.855857567 364.623442042
681.742465844 618.852686653 364.633856414
682.147408945 618.8308163 364.644273499
682.559552911 618.955130108 364.654669382
682.966904234 618.982148857 364.665079376
683.399503749 619.521729026 364.675415032
683.82404823 619.89778463 364.685774404
684.230290615 619.902290936 364.696187663
684.635068303 619.877062542 364.706605235
685.040342183 619.861907311 364.717021345
685.444600487 619.826134966 364.727440446
685.849803762 619.80954637 364.737856764
686.253093684 619.754114981 364.748278716
686.657729815 619.726012857 364.758696705
687.0630037 619.710857721 364.769112815
687.439139741 619.104177685 364.779614716
687.756839131 617.311180154 364.790288672
674.883035608 619.469165721 363.981528663
675.324989402 620.198646316 363.991836778
675.738124813 620.343087365 364.002229741
676.142501139 620.309710962 364.012648495
676.548082363 620.300795076 364.0230637
676.951041383 620.238646075 364.033486627
677.357425929 620.246038384 364.043899467
677.758755094 620.15080182 364.054327192
678.165871725 620.173056111 364.064737877
678.569043196 620.115220053 364.075160178
678.886961139 618.326659339 364.08583349
680.497030437 618.042196003 364.127530397
680.943512965 618.863614058 364.137825177
681.349282807 618.858527291 364.148239827
681.754509385 618.842411785 364.158656077
682.16039728 618.839721632 364.16907038
682.565671043 618.824564004 364.179486491
682.971913291 618.829067529 364.18989975
683.376596473 618.801920598 364.2003176
683.785034525 618.85100095 364.210724394
684.222849739 619.496464572 364.221044694
684.648930336 619.903704737 364.231399543
685.054275058 619.889987666 364.241815445
685.45895843 619.86284457 364.252233294
685.862437579 619.811254668 364.262654689
686.266837729 619.778361904 364.273073372
686.67074169 619.735396073 364.283493516
687.075944743 619.71880297 364.293909835
687.48036839 619.686387227 364.304328449
687.817648024 618.290886567 364.314944755
674.889555861 619.346763063 363.506344588
675.297047206 619.376624391 363.51675417
675.750664556 620.342885851 363.527027943
676.154993325 620.308543994 363.537446837
676.55915755 620.270861742 363.547866214
676.965069037 620.268650528 363.558280448
677.367319712 620.192121457 363.568705459
677.774483394 620.215330941 363.579116006
678.17628523 620.129690037 363.589542339
678.575397002 619.989438363 363.599976593
678.883960641 618.010976733 363.610677447
680.901733508 617.760683064 363.662783311
681.314893343 617.905619935 363.673176203
681.717191093 617.830046537 363.683601076
682.172629723 618.833281635 363.693869486
682.578635748 618.83298963 363.704283441
682.98346079 618.808722567 363.714700874
683.389821078 618.815622419 363.725113785
683.797336662 618.845975826 363.735523296
684.246846902 619.72885918 363.745809161
684.66066677 619.887195316 363.75620011
685.066885619 619.891223834 363.766613438
685.471120351 619.854972932 363.777032609
685.875449356 619.820635872 363.787451501
686.27928256 619.776233606 363.797871854
686.683918809 619.748133879 363.808289841
687.088059026 619.709964249 363.81870929
687.492931583 619.686661776 363.829126582
687.883522389 619.373426715 363.839585924
688.196541901 617.48542336 363.850273659
674.863269956 618.558365354 363.031257104
675.304983617 619.28297103 363.041565925
675.752721538 620.129874695 363.051857009
676.168076014 620.319364797 363.06224344
676.57264204 620.289839471 363.072661634
676.977089208 620.257901229 363.083080179
677.38191373 620.233623617 363.093497613
677.785345667 620.181075261 363.103919147
678.191352392 620.180797447 363.114333099
678.578535351 619.798379965 363.124802475
678.917968892 618.446605582 363.135412439
682.159074012 618.303318532 363.218744521
682.591198922 618.833263796 363.229081574
682.996519873 618.819064142 363.239497546
683.401935371 618.806783889 363.24991324
683.838596768 619.428823975 363.260236936
684.268003436 619.903586426 363.270581993
684.6741748 619.906650928 363.280995461
685.079117853 619.884779616 363.291412546
685.482667737 619.834625669 363.301833732
685.888272439 619.826186423 363.312248869
686.291444382 619.768359955 363.322671168
686.695608219 619.73066984 363.333090547
687.100504311 619.707845156 363.34350777
687.505022369 619.677346033 363.353926106
687.910130869 619.658833433 363.364342703
688.252608901 618.368865015 363.374943703
674.858354005 618.203797294 362.556106701
675.316625786 619.264547962 362.56636677
675.766771948 620.160341112 362.576650763
676.180308645 620.312928634 362.587042546
676.585748024 620.301133169 362.597458169
676.989580983 620.25672592 362.607878522
677.393697655 620.218078308 362.61829804
677.798924809 620.201974499 362.628714288
678.202119844 620.144616806 362.639136519
678.607135237 620.124214045 362.649553391
678.912201975 618.074762128 362.660264541
682.598401757 618.724718171 362.753895489
683.009626225 618.830365321 362.76429408
683.415159882 618.820483792 362.774709426
683.862309004 619.655434293 362.785002243
684.281440483 619.921601002 362.795377553
684.68664337 619.905004542 362.805793872
685.091893913 619.88937555 362.816210052
685.495892332 619.848327299 362.826629918
685.899914518 619.807761534 362.837049714
686.303157271 619.751372554 362.847471804
686.708903728 619.745811067 362.857886524
687.113232719 619.711473718 362.868305416
687.517963383 619.685290707 362.878723126
687.922882982 619.662943236 362.88914028
688.260233448 618.268880544 362.899756377
674.856277767 617.906877988 362.080947936
675.311999066 618.915851537 362.091215515
675.783184123 620.238753518 362.101437564
676.192635998 620.30841542 362.111841373
676.596870305 620.272155889 362.122260544
677.002569814 620.265641319 362.132675402
677.406497084 620.223148675 362.143095477
677.811369863 620.199850708 362.153512769
678.215462348 620.160712077 362.163932358
678.619838834 620.127338935 362.17435111
678.978874695 619.173509593 362.184903359
679.324539442 617.948234403 362.195494977
682.610636437 618.718323605 362.278694589
683.021906007 618.824886366 362.289093047
683.429397858 618.854757958 362.299502627
683.879120803 619.741959437 362.309787867
684.293129572 619.904130443 362.320178259
684.699726201 619.915828221 362.330590475
685.104197103 619.884371795 362.34100895
685.507368895 619.826542259 362.35143125
685.912666485 619.811868365 362.361847291
686.316168977 619.760752319 362.372268617
686.720994217 619.736489283 362.382686048
687.125536027 619.70647236 362.393104314
687.526773836 619.609381204 362.403532308
687.932731535 619.608108122 362.413946405
688.305275102 618.928497567 362.424458884
688.682612388 618.34620391 362.434957248
675.773075938 619.778778357 361.626302448
676.204892056 620.302454841 361.63664041
676.610496229 620.294004855 361.647055548
677.015439764 620.272143325 361.657472631
677.420311938 620.248833085 361.667889925
677.823247829 620.18621454 361.678312919
678.229088796 620.182571687 361.68872736
678.632355183 620.12666251 361.699149381
679.037298473 620.104795992 361.709566465
679.409819801 619.42473398 361.720079009
679.728915551 617.660083835 361.730748853
682.180418298 617.972317776 361.793187045
682.632687981 618.911220357 361.803464786
683.05390299 619.21968464 361.813833961
683.483811463 619.704634175 361.82417754
683.900726053 619.925796022 361.834559377
684.30599982 619.91063849 361.844975488
684.711675203 619.903634144 361.855390416
685.115295848 619.854916728 361.865811395
685.52054642 619.83928831 361.876227574
685.92352924 619.777622464 361.88665043
686.328472615 619.755757673 361.897067514
686.732967024 619.72477846 361.907485919
687.124544104 619.431565649 361.917942357
687.514466201 619.104755184 361.928403668
687.946546139 619.63378745 361.938740854
688.352574685 619.633952624 361.949154742
688.757848433 619.618794709 361.959570853
689.133842818 619.009238927 361.970073171
689.452014515 617.225829674 361.980745736
675.759495415 619.248311546 361.151177555
676.215544079 620.263930888 361.16144417
676.622020188 620.273182009 361.171856741
677.027625093 620.264746887 361.182271877
677.431127476 620.213628636 361.192693203
677.837795226 620.226770233 361.20310521
678.240517773 620.159820616 361.213528832
678.64510724 620.130771161 361.223946958
679.049908543 620.106022186 361.23436446
679.454473818 620.076481615 361.244782657
679.816085189 619.174937484 361.255327323
680.183499753 618.391203485 361.265854902
680.552545085 617.640575578 361.27637768
681.823112758 618.706504446 361.307464824
682.283883304 619.817982325 361.317717536
682.696286886 619.947566575 361.328112654
683.101560733 619.932410673 361.338528765
683.507519547 619.931160214 361.348942859
683.912935017 619.918879386 361.359358553
684.317878047 619.897007595 361.369775637
684.723884181 619.896717795 361.380189592
685.128213082 619.862378625 361.390608485
685.53216495 619.820385344 361.401028488
685.9359034 619.774059459 361.411449119
686.342027612 619.776166753 361.421862726
686.745790026 619.730327382 361.432283287
687.150497056 619.703664569 361.442701067
687.552513086 619.62237199 361.453126769
687.96017085 619.655611779 361.463535861
688.365279288 619.637097933 361.473952459
688.770458682 619.620024547 361.484368847
689.175496604 619.600079157 361.494785653
689.512988732 618.208892306 361.505401333
675.740320816 618.604279865 360.676069133
676.199553498 619.684537696 360.686326373
676.63491399 620.280168228 360.6966539
677.038983502 620.24056322 360.707073557
677.445107559 620.242667348 360.717487164
677.848728147 620.193948782 360.727908142
678.255230205 620.203726679 360.738320637
678.65807153 620.139188349 360.74874391
679.062022812 620.097183178 360.759163914
679.467911138 620.094501751 360.769578216
679.872098119 620.057281465 360.779997527
680.266060433 619.812491104 360.790446942
680.644557699 619.253746093 360.800941891
681.009754375 618.424986942 360.811476
681.379950096 617.697712964 360.821995391
681.896601815 619.943629795 360.832083573
682.303245882 619.956290629 360.842495649
682.707834451 619.927222955 360.852913777
683.11334445 619.916861144 360.863329193
683.519775916 619.925205964 360.873741895
683.924175546 619.892302652 360.88416058
684.330512436 619.898727496 360.894573561
684.735667884 619.881167979 360.90499002
685.140068028 619.84827512 360.915408703
685.543641324 619.798596468 360.925829821
685.94900961 619.785357761 360.936245653
686.353102629 619.746229965 360.946665241
686.758376575 619.731076076 360.957081351
687.162823979 619.699142629 360.967499895
687.567956109 619.681109736 360.977916423
687.973088338 619.663078855 360.988332951
688.377629841 619.6330557 360.998751217
688.782313279 619.605913946 361.009169066
689.187516581 619.589325925 361.019585385
689.534859308 618.398115256 361.030172062
676.173955418 618.910103469 360.211236864
676.643275719 620.195149199 360.221464403
677.052845894 620.267212701 360.231867864
677.45615931 620.212258237 360.242289747
677.862496526 620.218689698 360.252702727
678.266092804 620.169477616 360.263123777
678.67231215 620.173516202 360.273537104
679.075861088 620.123343077 360.283958293
679.479883421 620.082780285 360.294378088
679.886385819 620.092565087 360.304790582
680.290124032 620.046234407 360.315211214
680.67456773 619.608207415 360.325688655
681.071741788 619.428618388 360.336128614
681.476495879 619.40291096 360.346546255
681.91044061 619.969800241 360.35687795
682.315194564 619.944090032 360.367295591
682.720633768 619.93229102 360.377711215
683.126073042 619.920493446 360.388126839
683.530378479 619.885677925 360.398545801
683.936242806 619.882509312 360.408960173
684.341209697 619.861121926 360.419377187
684.746908611 619.854595273 360.429792046
685.151308577 619.821698769 360.44021073
685.556606101 619.807023532 360.450626771
685.960533626 619.764536065 360.461046846
686.365666058 619.746509309 360.471463373
686.770113155 619.714569629 360.481881918
687.17524537 619.696538461 360.492298445
687.579976143 619.670357654 360.502716155
687.98506116 619.65136832 360.513132822
688.389909727 619.627578854 360.523550184
688.795254582 619.613864468 360.533966086
689.200008857 619.588160779 360.544383726
689.561672239 618.687672525 360.554928239
676.139448163 617.954804848 359.736173586
676.6222347 619.5132275 359.746361477
677.065030978 620.259811277 359.75666711
677.470446419 620.247529873 359.767082804
677.874114409 620.199773595 359.777503643
678.280167496 620.200436975 359.787917459
678.684047941 620.156993739 359.798337672
679.089487343 620.145198755 359.808753296
679.493155432 620.097444491 359.819174134
679.897744129 620.068379405 359.829592262
680.303632331 620.065695485 359.840006564
680.707488726 620.021764009 359.850426848
681.112597444 620.00325582 359.860843445
681.516005959 619.950231978 359.871265048
681.922696578 619.963837841 359.881676987
682.327970151 619.948676377 359.892093099
682.733314878 619.934959402 359.902509001
683.138659884 619.921248085 359.912924902
683.542941464 619.885948255 359.923343934
683.94864051 619.879424287 359.933758793
684.354103334 619.868104789 359.944174347
684.75812544 619.827537394 359.954594143
685.164627715 619.837319703 359.965006637
685.567941163 619.782365911 359.97542852
685.974041944 619.783997526 359.985842196
686.377638761 619.734796376 359.996263244
686.783125234 619.723956968 360.006678729
687.187477892 619.690100093 360.017097552
687.592799084 619.675905329 360.027513523
687.99755326 619.650199627 360.037931164
688.40230746 619.624494404 360.048348804
688.807345354 619.604548437 360.05876561
689.212359471 619.584119793 360.069182485
689.540411098 618.001282148 360.079825961
676.565433654 618.105344508 359.271363838
677.039929924 619.495467142 359.281576138
677.482419123 620.235816941 359.291882675
677.887409913 620.214914726 359.302299619
678.291148428 620.168590184 359.312720251
678.698005098 620.185567034 359.323131701
679.100609572 620.116220421 359.333555671
679.507230204 620.128405481 359.343967816
679.9104253 620.071049034 359.354390048
680.316384222 620.069800781 359.364804141
680.721043865 620.042175965 359.37522206
681.125916185 620.018868699 359.385639353
681.530245677 619.984541514 359.396058244
681.935353832 619.966021914 359.406474843
682.340415304 619.9465546 359.416891579
682.746303403 619.94386857 359.427305881
683.150230852 619.901379569 359.437725956
683.556945814 619.915479618 359.448137824
683.960896634 619.87346505 359.45855783
684.365958035 619.853996298 359.468974566
684.771515723 619.844602625 359.479389841
685.175679116 619.806903496 359.489809221
685.581425517 619.801340858 359.50022394
685.985069475 619.753096723 359.51064485
686.390532516 619.741781636 359.521060403
686.794908908 619.708406577 359.531479157
687.199923012 619.687977644 359.541896032
687.604842625 619.665630462 359.552313186
688.009407852 619.63608893 359.562731383
688.395529091 619.23211756 359.573203884
688.782758058 618.850634074 359.583673124
689.152963163 618.123550608 359.594192488
676.988467217 618.195957323 358.806562782
677.469407534 619.716900019 358.816756108
677.89978377 620.211345584 358.82709831
678.304915904 620.193312787 358.837514838
678.708607089 620.146027392 358.847935608
679.115109709 620.1558167 358.858348101
679.517879757 620.089831388 358.868771584
679.924807269 620.108246398 358.879182825
680.328569296 620.062399165 358.889603387
680.733488989 620.040053613 358.900020541
681.138574143 620.021067059 358.910437207
681.542454338 619.977618741 358.920857421
681.949357974 619.995549059 358.931268733
682.352576927 619.938676921 358.941690894
682.75870122 619.940785846 358.952104501
683.163313697 619.912203535 358.962522559
683.568303968 619.891290773 358.972939504
683.974026668 619.885246991 358.983354293
684.378355829 619.850913094 358.993773186
684.783724176 619.837675634 359.004189018
685.188383993 619.810054365 359.014606937
685.59313824 619.784350101 359.025024577
685.997750968 619.755772873 359.035442634
686.40255237 619.731025911 359.045860136
686.807070527 619.700528803 359.056278472
687.21227374 619.68393896 359.06669479
687.617028043 619.658235846 359.077112431
688.019752938 619.591333876 359.087536046
688.37509986 618.562615698 359.098099157
688.738477688 617.696932254 359.108638621
677.408738253 618.230488318 358.341769859
677.883658392 619.629215883 358.35198091
678.317266599 620.18927343 358.362313596
678.722209818 620.167405473 358.37273068
679.125783062 620.117725767 358.383151798
679.532096554 620.123675603 358.393564848
679.935622165 620.073028909 358.403986106
680.341793779 620.076098494 358.414399573
680.746382673 620.047037435 358.4248177
681.150688219 620.012224119 358.435236662
681.556174866 620.001388259 358.445652146
681.960055099 619.957940708 358.45607236
682.366793549 619.972517588 358.466484159
682.770272004 619.92091359 358.476905555
683.176325549 619.921586273 358.48731937
683.580843645 619.891087917 358.497737706
683.985361759 619.860589945 358.508156042
684.391155353 619.855985378 358.518570622
684.795933078 619.830757751 358.528988194
685.200096972 619.793068787 358.539407573
685.605607301 619.782713688 358.549822987
686.009629223 619.742142553 358.560242784
686.414855839 619.726027814 358.570659033
686.819633578 619.700800476 358.581076605
687.224387877 619.675097265 358.591494245
687.629236879 619.651316621 358.601911607
688.019329774 619.327973498 358.612372415
688.385019874 618.509231299 358.622905072
688.729953181 617.269107196 358.633498843
677.806166841 617.801296705 357.877044191
678.290182198 619.384665537 357.887228463
678.72185981 619.905530229 357.897566833
679.139834417 620.148211366 357.907945549
679.543289323 620.096129293 357.918367015
679.949035832 620.090568861 357.928781734
680.353388552 620.056713231 357.939200557
680.758662559 620.04156059 357.949616667
681.163747378 620.022567229 357.960033335
681.568619887 619.999263797 357.970450627
681.973468785 619.975481043 357.980867989
682.377986582 619.944976646 357.991286325
682.783638487 619.937495663 358.001701323
683.188676476 619.917551615 358.012118128
683.59291091 619.881294673 358.022537299
683.998562881 619.873815032 358.032952297
684.402655564 619.834680427 358.043371885
684.807929473 619.819525772 358.053787995
685.212683757 619.793822275 358.064205636
685.617532424 619.770034822 358.074622998
686.022121536 619.740978175 358.085041125
686.427159312 619.721029812 358.095457931
686.831747957 619.691963672 358.105876059
687.234637226 619.628398661 358.116299191
687.628816176 619.388006188 358.126747968
687.993797018 618.554865411 358.137282713
688.358428321 617.714628656 358.147818488
678.227168897 617.850668082 357.412249115
678.682136627 618.844343478 357.422518913
679.11092661 619.30658667 357.432865785
679.552572358 620.029813633 357.443174806
679.961457336 620.087966993 357.453580284
680.366046273 620.058906798 357.463998412
680.770918697 620.03560164 357.474415704
681.175979805 620.016126943 357.484832441
681.580734251 619.990426706 357.495250081
681.9860078 619.975264762 357.505666193
682.390526122 619.94477101 357.516084528
682.795776547 619.929139621 357.526500708
683.20038893 619.900555392 357.536918766
683.60594658 619.891160953 357.547334041
684.009661438 619.844356128 357.557754742
684.415572968 619.842145778 357.568168975
684.819831357 619.806375159 357.578588075
685.225034258 619.789778987 357.589004395
685.629434299 619.756884018 357.599423078
686.034590304 619.739335816 357.609839536
686.43925006 619.711713302 357.620257455
686.818290794 619.164001185 357.630750803
687.160433896 617.867233373 357.64135279
687.550357239 617.540448187 357.651814097
679.052428787 617.864257539 356.957873142
679.487675801 618.457584372 356.968201003
679.929694386 619.188380277 356.978508926
680.374031993 619.966254447 356.988810022
680.783481725 620.035872833 356.999213837
681.184011099 619.924399791 357.009643917
681.584231501 619.806654334 357.020074907
681.998382403 619.97171077 357.030464881
682.402522578 619.933540277 357.040884329
682.807583785 619.914067593 357.051301066
683.212810581 619.897956498 357.061717315
683.617635599 619.873688955 357.072134747
684.022838807 619.857099015 357.082551066
684.427663839 619.832831761 357.092968498
684.83246534 619.808086813 357.103386
685.232429493 619.685139252 357.113817744
685.613052459 619.169547896 357.124306434
686.008429415 618.953476053 357.134751684
686.37997062 618.253516645 357.145267113
686.741886166 617.358147544 357.155810884
680.283669368 617.877040684 356.513911199
680.716997282 618.431408025 356.52424471
681.118923224 618.348286577 356.534670678
681.52672551 618.384460313 356.545079344
681.974513161 619.23237354 356.555370281
682.415369026 619.939565165 356.565681628
682.820147054 619.914343676 356.576099199
683.224948546 619.889598537 356.5865167
683.608000547 619.423318831 356.596998238
683.992920324 618.994956664 356.607474277
684.352958581 618.061476894 356.618023575
684.734006652 617.554515555 356.628511014
682.341073902 618.176536384 356.090735497
682.770130629 618.64419471 356.101081584
683.171248901 618.544676832 356.11150993
683.553706408 618.066328333 356.121993219
683.92950687 617.452835751 356.132496108