VERSION 0.7
FIELDS x y z
SIZE 4 4 4
TYPE F F F
COUNT 1 1 1
WIDTH 484
HEIGHT 1
VIEWPOINT 0.0 0.0 0.0 1.0 0.0 0.0 0.0
POINTS 484
DATA ascii
512.557959008 607.524135555 368.06024413
512.897089847 607.831497771 368.06876652
513.229187676 607.717457505 368.077702631
513.570002131 608.12569829 368.086125982
513.907387702 608.32848785 368.094751039
514.23853448 608.157462711 368.103743095
514.57361808 608.222323266 368.112503566
514.905544871 608.098034762 368.121449738
515.237706076 607.987791844 368.13038212
515.577841461 608.355344181 368.138845418
515.914776266 608.531124907 368.147496991
516.247274977 608.441104584 368.15640952
516.579544815 608.337370706 368.165335511
516.907156348 607.954521456 368.174535529
517.242256144 608.020352442 368.183295048
517.573359703 607.846737702 368.192289646
517.908170374 607.895244948 368.201066172
518.242303652 607.903164288 368.209882546
518.569188828 607.476793314 368.219125292
499.534932122 607.898584517 367.325994127
499.872764912 608.128170475 367.334592876
500.20749995 608.172145936 367.343373852
500.549137858 608.629726205 367.351748763
500.888627064 608.958560923 367.360250073
501.215683779 608.542468223 367.369482729
501.53322825 607.556422774 367.379274945
511.884373189 607.383296159 367.652993537
512.22919168 608.031449974 367.66118135
512.572845176 608.609799791 367.669437694
512.907233555 608.633004212 367.678239062
513.243790671 608.786154631 367.686912853
513.576999299 608.738670948 367.69578362
513.908435126 608.584964988 367.704758673
514.242781285 608.605639712 367.713562524
514.57990995 608.793036037 367.722202694
514.91556463 608.892114457 367.730929571
515.2480523 608.801432589 367.739842748
515.58069979 608.720326783 367.748746525
515.914095095 608.684028413 367.75760631
516.249130655 608.746010521 367.766369607
516.582248099 608.693063338 367.775245738
516.914709304 608.600795769 367.784160473
517.247074567 608.502779561 367.793080851
517.581292587 608.515776448 367.80189224
517.91533433 608.518211226 367.810713999
518.249098347 608.504005258 367.819552095
518.582339881 608.458493254 367.828420926
518.898170949 607.369784522 367.838313934
498.860693606 607.71863692 366.91878193
499.209422092 608.601068971 366.926739736
499.551761605 609.100687844 366.935073376
499.887624168 609.212222126 366.943788024
500.221804538 609.22296314 366.952601628
500.55580885 609.223155159 366.961425589
500.889727796 609.218232182 366.970254571
501.223913753 609.229307929 366.979067846
501.54054641 608.188628624 366.9889137
511.547215729 607.38789228 367.25442431
511.896098375 608.279561324 367.262373048
512.235335234 608.593275984 367.270889202
512.569259414 608.588666626 367.279717877
512.909367687 608.954594545 367.28818277
513.244236784 609.006602556 367.296955859
513.577990116 608.991756358 367.305794584
513.911829067 608.98204026 367.314628272
514.245924091 608.987667551 367.323446896
514.579714889 608.975066222 367.332283417
514.913703235 608.974301576 367.341108317
515.247344442 608.952737084 367.349953637
515.581578489 608.966694285 367.358764083
515.915321161 608.951209391 367.367603435
516.249181303 608.942763066 367.376435877
516.583191098 608.943283552 367.385259515
516.917003181 608.931957629 367.394094783
517.2466503 608.671076178 367.403175057
517.577936534 608.508406927 367.41215891
517.911887473 608.50540093 367.42098601
518.24587594 608.504643515 367.429810903
518.579885516 608.505150946 367.438634554
518.897559112 607.526842397 367.448419174
498.521859742 607.622786606 366.520311318
498.877770521 608.935565884 366.527846623
499.216830558 609.23868574 366.536373179
499.55070674 609.231200497 366.545204677
499.884716482 609.231717847 366.554028318
500.218560631 609.222313192 366.562861701
500.552463538 609.216429197 366.571691627
500.886462579 609.216305357 366.580515897
501.220434851 609.214577581 366.589341743
501.541511553 608.440175693 366.598926174
511.548114948 607.635489364 366.864440662
511.89796946 608.585390393 366.872332229
512.232069956 608.591345512 366.881150532
512.566378644 608.609775045 366.889956588
512.907041915 609.008957198 366.898388833
513.240971529 609.004673428 366.907217187
513.574885143 608.999431007 366.916046483
513.908638485 608.984585449 366.924885207
514.242690955 608.987662954 366.933706335
514.576625863 608.983696386 366.942534378
514.910363184 608.967890898 366.951374045
515.244506491 608.976411162 366.960189829
515.578158305 608.955482229 366.969034525
515.912162757 608.955682632 366.977858478
516.246054982 608.949158598 366.986689032
516.579829684 608.935592861 366.9955265
516.913871467 608.938030007 367.004348256
517.24515823 608.775392495 367.013332077
517.574895593 608.519918288 367.022407043
517.908675663 608.506674169 367.031244194
518.242631942 608.503988127 367.04007098
518.576839247 608.516342992 367.048883
518.891714525 607.370365405 367.058832232
498.525380394 608.027454149 366.130173463
498.879625011 609.240400599 366.137806781
499.213549309 609.235798345 366.146635449
499.547494926 609.232473481 366.155462862
499.881349743 609.223708032 366.164295617
500.215279371 609.219425158 366.17312397
500.549155576 609.211941258 366.181955467
500.883149233 609.211494775 366.190780054
501.217287127 609.219690732 366.199596157
501.536018731 608.30477568 366.20931854
511.542415199 607.487690759 366.4748452
511.894827061 608.590822603 366.482586331
512.228858128 608.592617663 366.491408717
512.562894519 608.594731782 366.500230791
512.901571419 608.874894923 366.508779885
513.237743656 609.004984241 366.517476317
513.571614521 608.997180387 366.526308127
513.905592201 608.995776598 366.535133655
514.239388269 608.983491066 366.543969865
514.573349937 608.981127923 366.552796334
514.907327643 608.979725734 366.56162186
515.241091651 608.965519253 366.570459957
515.575144122 608.968596822 366.579281084
515.908902805 608.954071283 366.588119494
516.24275233 608.944988758 366.59695256
516.576740713 608.944226352 366.605777458
516.910499373 608.929699405 366.614615869
517.240034361 608.66209934 366.623702739
517.571512828 608.510948223 366.632675283
517.905575996 608.51466679 366.641495782
518.23944145 608.506538693 366.650327911
518.573531256 608.511853261 366.659146842
518.887616948 607.318565411 366.669142522
498.524428469 608.164134708 365.740298709
498.876413174 609.241672239 365.748064967
499.210300082 609.234829658 365.756895834
499.544272417 609.233105658 365.765721676
499.878073806 609.221138929 365.774557573
500.212035489 609.218776682 365.783384042
500.546018512 609.217693104 365.792209254
500.880049554 609.219486692 365.801031643
501.213829875 609.206257608 365.80986878
501.533710359 608.360180947 365.819523579
511.890697366 608.537098142 366.09289851
512.228267977 608.750974937 366.101512682
512.563639835 608.833107252 366.110256196
512.899454337 608.941761872 366.118973672
513.234505136 609.004657065 366.127736072
513.568413319 608.999089186 366.136565688
513.902321652 608.99353033 366.145395294
514.23619783 608.986044831 366.154226793
514.570122044 608.981437521 366.163055465
514.904030352 608.975877129 366.171885073
515.237890489 608.967430484 366.180717515
515.571814754 608.962826246 366.189546184
515.905744389 608.958543755 366.198374538
516.239588531 608.949138716 366.20720792
516.573475412 608.942294471 366.216038789
516.903282274 608.690984547 366.225109666
517.234398051 608.518101874 366.234103546
517.568274302 608.510620727 366.242935039
517.902118444 608.501215688 366.251768422
518.236234974 608.508131504 366.260585781
518.56602153 608.255604862 366.269657853
498.514391993 607.756488962 365.350958357
498.873126601 609.238465849 365.358327549
499.206997443 609.230660587 365.367159361
499.540937726 609.227016087 365.375987089
499.874856653 609.222092021 365.384816072
500.208748881 609.21556818 365.393646626
500.542683818 609.211603341 365.402474668
500.876768333 609.216600961 365.41129391
501.208263124 609.066427944 365.420265494
501.534156972 608.580658823 365.429566556
511.886739321 608.493658667 365.703200592
512.229328221 609.008220213 365.711519561
512.563423415 609.01385768 365.720338176
512.897256866 609.003812026 365.729172187
513.231239858 609.002726593 365.737997402
513.565292323 609.005803778 365.74681853
513.898970887 608.986477693 365.755661653
514.232969971 608.986356413 365.764485921
514.566894214 608.981750831 365.773314592
514.900749026 608.972985127 365.782147347
515.234732085 608.971903725 365.790972558
515.568549577 608.960901853 365.799807508
515.90238297 608.950852744 365.808641523
516.236408773 608.952332456 365.817464219
516.570306311 608.946126778 365.826294461
516.899707435 608.670505885 365.835389206
517.231223632 608.521615505 365.84435953
517.565190601 608.51956995 365.853185688
517.899077542 608.512729353 365.862016553
518.232943045 608.504604198 365.870848679
518.56008135 608.093400137 365.880076535
498.860838926 608.695933234 364.969119624
499.20376424 609.230652022 364.977418804
499.537656465 609.224127988 364.986249358
499.871543341 609.217283487 364.995080227
500.205478314 609.213320824 365.003908267
500.539413241 609.209355408 365.012736309
500.873401602 609.208591658 365.021561208
501.206429123 609.150256498 365.030442629
501.529215849 608.478315432 365.039926467
511.885295409 608.600860396 365.313354779
512.226207215 609.014934229 365.321772404
512.560024611 609.003926662 365.33060736
512.894098429 609.008283283 365.339427232
513.227974611 609.000797976 365.34825873
513.561893521 608.995872887 365.357087714
513.895881937 608.9951124 365.36591261
514.22964062 608.980586861 365.37475102
514.563655695 608.981423719 365.383574347
514.897595978 608.977779283 365.392402074
515.231472157 608.970293783 365.401233573
515.565300289 608.959929454 365.410067897
515.89930469 608.960126785 365.418891852
516.233212897 608.954560378 365.427721466
516.567089135 608.947078462 365.436552961
516.897088242 608.707287375 365.445612529
517.227958416 608.519688744 365.454620856
517.561882682 608.51508457 365.463449526
517.89576951 608.508237126 365.472280397
518.229779285 608.50875646 365.481104037
518.550801117 607.73106684 365.490691696
498.839569934 607.615259881 364.580440029
499.193760929 608.824993471 364.588076501
499.534546107 609.231479994 364.596501575
499.866159283 609.088400379 364.605466195
500.202330551 609.218431607 364.614162684
500.536238813 609.212868463 364.622992294
500.870109612 609.205060641 364.631824109
501.202246082 609.093335683 364.640757946
501.514002679 607.760493572 364.650890636
511.880000123 608.477296365 364.923735525
512.222909869 609.011082361 364.93203562
512.557021059 609.017678222 364.940853294
512.89088657 609.009553579 364.949685419
513.224752082 609.001428937 364.958517545
513.558708419 608.998746415 364.967344328
513.892627293 608.99381915 364.976173314
514.226562301 608.989858599 364.985001352
514.560459867 608.983654585 364.993831592
514.894336036 608.976168509 365.00266309
515.228313777 608.974768432 365.011488614
515.562029716 608.957681778 365.020329538
515.895996702 608.955637246 365.029155694
516.229995736 608.955513022 365.037979966
516.563492854 608.925315051 365.046833762
516.891094418 608.541868459 365.056034366
517.224682471 608.517119129 365.064882814
517.558601396 608.512194936 365.073711797
517.892584417 608.51111123 365.08253701
518.226343107 608.496586074 365.09137542
518.548460017 607.784511091 365.100898661
499.505269941 607.671034434 364.208293004
500.177613989 607.931187484 364.225685892
500.526172985 608.80346405 364.233653669
500.862397631 608.936693551 364.242347017
501.179333392 607.914175601 364.252175041
511.879528293 608.642743135 364.533832529
512.219740773 609.014914923 364.542291292
512.553681032 609.011268951 364.55111902
512.887594643 609.006026338 364.559948317
513.221524223 609.001740583 364.568776673
513.555448527 608.99713865 364.57760534
513.889420852 608.995414074 364.586431183
514.223243616 608.984728062 364.595265823
514.557231977 608.983964311 364.604090722
514.891129587 608.977762985 364.612920959
515.224898905 608.963874668 364.621758743
515.558924711 608.965354508 364.63058144
515.892816905 608.958828618 364.639411996
516.226837303 608.959984471 364.64823501
516.560644108 608.948342241 364.657070589
516.889949364 608.666977187 364.666170973
517.221630898 608.527993395 364.675131572
517.555464336 608.517947038 364.683965584
517.889319169 608.509182549 364.692798338
518.223328921 608.509700476 364.701621979
518.546060358 607.834446655 364.71110907
511.8742539 608.52043097 364.144212045
512.21653428 609.01650671 364.152549163
512.550426476 609.009980948 364.161379719
512.884356088 609.005697114 364.170208074
513.218178893 608.995013597 364.179042712
513.552177898 608.994887582 364.187866985
513.886160961 608.993806373 364.196692195
514.219989102 608.983442619 364.205526519
514.553961374 608.981714843 364.214352365
514.887837619 608.974233311 364.223183859
515.221761848 608.969626897 364.23201253
515.555568655 608.957984859 364.240848109
515.88954097 608.956259643 364.249673952
516.223470586 608.951976 364.258502307
516.557336088 608.943850782 364.267334433
516.88885788 608.795295655 364.276304429
517.218210671 608.51677878 364.285402017
517.552001468 608.504177388 364.294238537
517.88615541 608.513334874 364.303053696
518.219956789 608.50136757 364.311889594
518.53768328 607.526228366 364.321671103
511.524711663 607.782958559 363.746371357
511.878052858 608.94177395 363.754057819
512.21326899 609.014575533 363.762810494
512.547273419 609.014774528 363.771634448
512.881128195 609.006006648 363.780467205
513.215004453 608.998525948 363.789298698
513.548998139 608.998081257 363.798123284
513.882852957 608.989315873 363.806956038
514.216819973 608.987273197 363.815782193
514.550685499 608.979149387 363.824614318
514.884540286 608.970382211 363.833447074
515.218592764 608.973460164 363.842268201
515.550717836 608.861052235 363.851202709
515.886238341 608.952091211 363.859937479
516.220226734 608.951329317 363.868762376
516.554108229 608.944162428 363.877593561
516.883547052 608.670800353 363.886686088
517.215041608 608.520613262 363.895657686
517.548880408 608.510888139 363.904491383
517.882788658 608.505324356 363.913320995
518.212318865 608.237437812 363.922408146
511.524538286 607.966287953 363.356450804
511.875994103 609.012135709 363.364248174
512.210030478 609.014248868 363.373070249
512.544056205 609.015723973 363.38189295
512.877916417 609.007281808 363.390725387
513.21185668 609.003636092 363.399553116
513.545663443 608.99199143 363.408388697
513.879753305 608.99730939 363.417207625
514.21350662 608.982462167 363.426046351
514.547511018 608.982659306 363.434870306
514.881435299 608.978056028 363.443698975
515.212988986 608.831411928 363.452667094
515.542037545 608.534666114 363.461782579
515.878781118 608.698988606 363.470445401
516.216160471 608.901405618 363.479070824
516.547291739 608.729451128 363.488063792
516.877814693 608.521047852 363.497092545
517.211792437 608.519647903 363.505918069
517.545722014 608.515361956 363.514746425
517.879592858 608.507556821 363.523578237
518.203184741 607.883859006 363.533014713
511.514966064 607.586459307 362.967083142
511.872440673 608.992939805 362.974526455
512.206733198 609.010400904 362.983333461
512.540806969 609.014754711 362.992153336
512.873316399 608.925376657 363.001065233
513.208297975 608.984124137 363.009831706
513.54245161 608.993263262 363.018646883
513.876429268 608.991858193 363.027472411
514.210348233 608.986936368 363.036301392
514.544235059 608.980088859 363.045132264
514.878159385 608.975488269 363.05396093
515.209803578 608.834267158 363.062923725
515.538889733 608.539774018 363.072036998
515.878196918 608.857702441 363.080549016
516.213754953 608.950990119 363.089281578
516.547716857 608.948641115 363.098108033
516.876065797 608.609975657 363.107264673
517.208489762 608.515476719 363.116181598
517.542419361 608.511192052 363.125009954
517.8763223 608.505310041 363.133839878
518.200811259 607.935363045 363.143223582
511.863360007 608.642564142 362.585129876
512.201027986 608.86227499 362.593738321
512.533894747 608.794307386 362.602629198
512.864438669 608.58716044 362.611656717
513.199142241 608.629250541 362.620439544
513.537584659 608.89536406 362.629002431
513.873110618 608.986729831 362.637736881
514.207136367 608.98820628 362.64655958
514.540996549 608.979762322 362.655392019
514.874910111 608.974516766 362.664221318
515.208759637 608.965434306 362.673054384
515.53767444 608.660674123 362.682177737
515.876560089 608.953345081 362.690714551
516.210511116 608.950344331 362.699541646
516.544627606 608.95725778 362.708359008
516.874370613 608.70212177 362.717433641
517.205272598 608.516429172 362.726440097
517.539207524 608.512463692 362.73526814
517.873078372 608.504658814 362.744099951
518.194971002 607.779145517 362.753636386
511.854329607 608.295200276 362.195730341
512.19337296 608.597320473 362.204257879
512.527302584 608.593037342 362.213086233
512.86118948 608.586193993 362.221917101
513.195076351 608.579349172 362.23074797
513.529213971 608.587528687 362.239564088
513.868270381 608.890431302 362.248090858
514.203774964 608.980516228 362.256826564
514.537779367 608.980713623 362.26565052
514.87166089 608.973548399 362.274481703
515.20556379 608.96766402 362.28331163
515.533539078 608.606610136 362.29249025
515.871671764 608.854165226 362.301071357
516.207171066 608.943933716 362.309807375
516.540812572 608.922387139 362.318652677
516.869465887 608.601959196 362.327791412
517.201895181 608.507779573 362.336708024
517.535958316 608.511496093 362.345528524
517.863849316 608.145391925 362.354712102
518.183290244 607.272978007 362.364392759
511.837482108 607.479453034 361.80679065
512.182413608 608.134378069 361.814971815
512.519814156 608.338065051 361.823595991
512.857924217 608.58426448 361.832178429
513.191864532 608.5806219 361.841006155
513.525714001 608.571536048 361.849839224
513.859974469 608.587076327 361.858648116
514.198902677 608.882297327 361.867182427
514.534476708 608.976543399 361.875914048
514.867333371 608.907970822 361.88480552
515.197802425 608.696337911 361.893837443
515.52922756 608.541991273 361.902813125
515.863434626 608.554331871 361.911625158
516.198709661 608.630662753 361.920374368
516.531710245 608.570713607 361.929257373
516.864849886 608.519096419 361.938132198
517.198715397 608.510971713 361.946964324
517.53262362 608.505406266 361.955793937
517.848705754 607.431740872 361.965672176
512.841955342 607.821162473 361.443187052
513.186811241 608.471557657 361.451372665
513.522464793 608.570568449 361.460099608
513.856373031 608.565003897 361.46892922
514.190254591 608.557840849 361.477760402
514.524525958 608.574034215 361.486568653
514.858151139 608.551509475 361.495414916
515.19200604 608.542749082 361.504247666
515.525924961 608.537824633 361.51307665
515.85977974 608.529056945 361.521909407
516.193784178 608.529256516 361.53073336
516.527660374 608.52177204 361.539564857
516.861456447 608.509486828 361.548401067
517.195508901 608.512563373 361.557222196
517.529433173 608.507959519 361.566050865
517.848842539 607.633654482 361.575733378
513.165826487 607.40791521 361.062676348
513.516738904 608.421203602 361.070505684
513.853113142 608.563396324 361.079190233
514.186967988 608.554632667 361.088022986
514.520918963 608.551628782 361.096850084
514.85489125 608.549901901 361.105675929
515.188756773 608.541777963 361.114508054
515.522670358 608.536533815 361.123337351
515.856621351 608.533531017 361.132164449
516.190481491 608.525084564 361.14099689
516.524341728 608.516643871 361.149829326
516.858308731 608.514600427 361.158655481
517.192147512 608.504874153 361.167489179
517.526087824 608.501231381 361.176316905
517.842186466 607.428555081 361.186194172
513.497307705 607.450646762 360.681717979
513.838852686 607.902659029 360.690098358
514.171847313 607.84235294 360.698981713
514.502385395 607.634856039 360.708009576
514.840497997 607.881207719 360.716591865
515.177781399 608.077875566 360.725222932
515.515903139 608.324774749 360.733804684
515.848103467 608.216876012 360.742734764
516.185513707 608.421143701 360.75135837
516.520942963 608.50671522 360.760098508
516.854856572 608.501472479 360.768927804
517.187120973 608.397412822 360.777854116
517.510070877 607.735249008 360.787328356
516.164486254 607.354942828 360.362664566
516.502564969 607.599264063 360.371248848
516.833968632 607.443630934 360.380225793